ncols         224
nrows         55
xllcorner     891318.69
yllcorner     329087.38
cellsize      2.5
NODATA_value  -9999
-9999 -9999 -9999 -9999 -9999 -9999 -9999 -9999 -9999 -9999 -9999 -9999 -9999 1123.173 1121.499 1119.825 1118.995 1118.407 1117.819 1117.23 1116.642 1116.054 1115.466 1114.878 1114.29 1113.702 1113.116 1112.529 1111.942 1111.354 1110.765 1110.177 1110 1110 1110 1110 1110 1110 1110 1110 1110 1110 1110 1110 1110 1111.066 1112.144 1113.222 1114.3 1115.354 1116.366 1117.379 1118.391 1119.403 1120.522 1121.794 1123.066 1124.337 1125.609 1126.993 1128.398 1129.803 1131.272 1132.752 1134.161 1135.536 1136.91 1138.285 1139.659 1141.309 1143.051 1144.792 1146.533 1148.24 1149.824 1151.284 1152.652 1152.89 1153.514 1154.664 1155.7 1156.628 1157.556 1158.484 1159.412 1160.543 1161.931 1163.334 1164.733 1166.133 1167.775 1169.583 1171.47 1173.377 1175.273 1177.182 1179.087 1180.897 1182.62 1184.492 1186.324 1188.162 1190.033 1191.226 1191.382 1193.045 1194.815 1196.585 1198.525 1200.933 1203.34 1205.748 1208.212 1210.912 1213.025 1214.843 1216.701 1218.749 1220.428 1221.538 1222.698 1223.858 1225.018 1226.156 1227.256 1228.378 1229.526 1230.645 1231.766 1232.888 1234.011 1235.14 1236.269 1237.397 1238.526 1239.655 1241.028 1242.458 1243.887 1245.216 1246.538 1247.859 1249.181 1250.524 1251.902 1253.28 1254.688 1256.114 1257.569 1259.218 1260.835 1262.267 1263.535 1265.01 -9999 -9999 -9999 -9999 -9999 -9999 -9999 -9999 -9999 -9999 -9999 -9999 -9999 -9999 -9999 -9999 -9999 -9999 -9999 -9999 -9999 -9999 -9999 -9999 -9999 -9999 -9999 -9999 -9999 -9999 -9999 -9999 -9999 -9999 -9999 -9999 -9999 -9999 -9999 -9999 -9999 -9999 -9999 -9999 -9999 -9999 -9999 -9999 -9999 -9999 -9999 -9999 -9999 -9999 -9999 -9999 -9999 -9999 -9999 -9999 -9999 -9999 -9999 -9999 -9999 -9999 -9999 -9999 -9999 -9999
-9999 -9999 -9999 -9999 -9999 -9999 -9999 -9999 -9999 -9999 -9999 -9999 -9999 -9999 1121.016 1119.343 1118.731 1118.142 1117.554 1116.966 1116.378 1115.789 1115.201 1114.613 1114.025 1113.437 1112.847 1112.262 1111.675 1111.088 1110.5 1110 1110 1110 1110 1110 1110 1110 1110 1110 1110 1110 1110 1110 1110 1110.967 1112.045 1113.123 1114.201 1115.279 1116.357 1117.405 1118.417 1119.429 1120.555 1121.826 1123.098 1124.456 1125.861 1127.267 1128.672 1130.081 1131.561 1133.04 1134.52 1135.928 1137.303 1138.677 1140.065 1141.807 1143.548 1145.289 1147.031 1148.772 1150.482 1151.833 1152.875 1152.879 1153.94 1155.105 1156.251 1157.265 1158.193 1159.122 1160.079 1161.559 1162.946 1164.265 1165.7 1167.135 1168.554 1170.202 1172.113 1174.025 1175.936 1177.83 1179.699 1181.511 1183.235 1184.958 1186.8 1188.697 1190.564 1190.886 1192.053 1193.679 1195.427 1197.197 1198.548 1200.643 1203.05 1205.822 1208.967 1211.419 1213.532 1215.646 1217.759 1219.748 1220.965 1222.066 1223.167 1224.327 1225.486 1226.646 1227.806 1228.966 1230.143 1231.359 1232.484 1233.606 1234.727 1235.849 1236.978 1238.107 1239.236 1240.484 1241.981 1243.456 1244.886 1246.249 1247.57 1248.892 1250.223 1251.6 1252.978 1254.356 1255.742 1257.169 1258.596 1260.08 1261.521 1262.961 1264.402 1265.759 1267.235 1268.887 -9999 -9999 -9999 -9999 -9999 -9999 -9999 -9999 -9999 -9999 -9999 -9999 -9999 -9999 -9999 -9999 -9999 -9999 -9999 -9999 -9999 -9999 -9999 -9999 -9999 -9999 -9999 -9999 -9999 -9999 -9999 -9999 -9999 -9999 -9999 -9999 -9999 -9999 -9999 -9999 -9999 -9999 -9999 -9999 -9999 -9999 -9999 -9999 -9999 -9999 -9999 -9999 -9999 -9999 -9999 -9999 -9999 -9999 -9999 -9999 -9999 -9999 -9999 -9999 -9999 -9999 -9999 -9999
-9999 -9999 -9999 -9999 -9999 -9999 -9999 -9999 -9999 -9999 -9999 -9999 -9999 -9999 -9999 1119.796 1118.465 1117.878 1117.29 1116.702 1116.113 1115.525 1114.937 1114.349 1113.757 1113.161 1112.574 1111.989 1111.404 1110.819 1110.234 1110 1110 1110 1110 1110 1110 1110 1110 1110 1110 1110 1110 1110 1110 1110.868 1111.945 1113.023 1114.101 1115.179 1116.257 1117.335 1118.413 1119.455 1120.587 1121.92 1123.325 1124.73 1126.135 1127.54 1128.946 1130.369 1131.849 1133.329 1134.808 1136.288 1137.695 1139.07 1140.563 1142.304 1144.045 1145.787 1147.608 1149.44 1151.056 1152.566 1153.138 1153.413 1154.477 1155.533 1156.685 1157.839 1158.831 1159.759 1161.095 1162.574 1164.054 1165.333 1166.598 1168.033 1169.469 1170.956 1172.449 1174.28 1176.15 1178.019 1179.888 1181.785 1183.684 1185.504 1187.296 1189.087 1190.08 1190.748 1192.783 1194.391 1196.039 1197.764 1198.928 1200.352 1203.432 1206.568 1209.692 1211.958 1214.087 1216.216 1218.344 1220.264 1221.452 1222.604 1223.704 1224.805 1225.955 1227.115 1228.275 1229.435 1230.672 1231.981 1233.178 1234.311 1235.444 1236.567 1237.688 1238.817 1239.946 1241.425 1242.922 1244.419 1245.884 1247.281 1248.603 1249.924 1251.299 1252.677 1254.055 1255.433 1256.811 1258.224 1259.65 1260.648 1262.123 1263.599 1265.074 1266.528 1267.969 1269.461 1271.235 1273.052 -9999 -9999 -9999 -9999 -9999 -9999 -9999 -9999 -9999 -9999 -9999 -9999 -9999 -9999 -9999 -9999 -9999 -9999 -9999 -9999 -9999 -9999 -9999 -9999 -9999 -9999 -9999 -9999 -9999 -9999 -9999 -9999 -9999 -9999 -9999 -9999 -9999 -9999 -9999 -9999 -9999 -9999 -9999 -9999 -9999 -9999 -9999 -9999 -9999 -9999 -9999 -9999 -9999 -9999 -9999 -9999 -9999 -9999 -9999 -9999 -9999 -9999 -9999 -9999 -9999 -9999
-9999 -9999 -9999 -9999 -9999 -9999 -9999 -9999 -9999 -9999 -9999 -9999 -9999 -9999 -9999 -9999 -9999 1117.599 1117.012 1116.424 1115.837 1115.249 1114.661 1114.073 1113.48 1112.886 1112.301 1111.716 1111.131 1110.543 1110 1110 1110 1110 1110 1110 1110 1110 1110 1110 1110 1110 1110 1110 1110 1110.714 1111.795 1112.876 1113.957 1115.039 1116.12 1117.201 1118.282 1119.383 1120.701 1122.14 1123.579 1125.004 1126.409 1127.814 1129.219 1130.658 1132.137 1133.617 1135.097 1136.576 1138.056 1139.462 1141.06 1142.804 1144.635 1146.467 1148.298 1150.108 1151.629 1153.153 1153.181 1154.069 1155.318 1156.407 1157.394 1158.381 1159.429 1160.632 1162.111 1163.59 1165.069 1166.49 1167.719 1168.948 1170.388 1171.906 1173.424 1174.913 1176.392 1178.208 1180.079 1181.978 1183.876 1185.775 1187.673 1189.402 1189.536 1191.999 1193.725 1195.243 1196.761 1198.131 1199.256 1201.103 1204.169 1207.107 1210.164 1212.381 1214.598 1216.815 1218.977 1220.617 1221.805 1222.994 1224.182 1225.342 1226.443 1227.583 1228.743 1229.903 1231.201 1232.51 1233.82 1234.997 1236.13 1237.263 1238.396 1239.527 1240.869 1242.366 1243.863 1245.359 1246.856 1248.312 1249.635 1250.998 1252.375 1253.753 1255.131 1256.509 1257.887 1259.278 1260 1261.233 1262.715 1264.198 1265.681 1267.163 1268.646 1270.161 1271.925 1273.668 1275.485 -9999 -9999 -9999 -9999 -9999 -9999 -9999 -9999 -9999 -9999 -9999 -9999 -9999 -9999 -9999 -9999 -9999 -9999 -9999 -9999 -9999 -9999 -9999 -9999 -9999 -9999 -9999 -9999 -9999 -9999 -9999 -9999 -9999 -9999 -9999 -9999 -9999 -9999 -9999 -9999 -9999 -9999 -9999 -9999 -9999 -9999 -9999 -9999 -9999 -9999 -9999 -9999 -9999 -9999 -9999 -9999 -9999 -9999 -9999 -9999 -9999 -9999 -9999 -9999 -9999
-9999 -9999 -9999 -9999 -9999 -9999 -9999 -9999 -9999 -9999 -9999 -9999 -9999 -9999 -9999 -9999 -9999 -9999 1116.953 1116.146 1115.558 1114.971 1114.383 1113.793 1113.202 1112.613 1112.026 1111.439 1110.851 1110.264 1110 1110 1110 1110 1110 1110 1110 1110 1110 1110 1110 1110 1110 1110 1110 1110.554 1111.635 1112.716 1113.797 1114.879 1115.96 1117.041 1118.211 1119.414 1120.738 1122.177 1123.616 1125.055 1126.494 1127.933 1129.477 1131.005 1132.481 1133.955 1135.428 1136.901 1138.374 1139.847 1141.663 1143.494 1145.325 1147.157 1148.988 1150.681 1152.202 1153.229 1153.277 1154.571 1155.867 1157.157 1158.336 1159.323 1160.453 1161.857 1163.185 1164.606 1166.085 1167.565 1168.876 1170.12 1171.522 1172.856 1174.374 1175.892 1177.378 1178.856 1180.357 1182.272 1184.067 1185.965 1187.863 1189.446 1189.513 1193.078 1195.171 1196.719 1197.977 1198.641 1199.536 1201.912 1205.168 1208.13 1210.837 1213.184 1215.418 1217.651 1219.884 1221.068 1222.218 1223.378 1224.537 1225.723 1226.911 1228.081 1229.212 1230.42 1231.729 1233.039 1234.349 1235.659 1236.817 1237.95 1239.082 1240.285 1241.787 1243.289 1244.791 1246.293 1247.795 1249.294 1250.696 1252.074 1253.441 1254.781 1256.121 1257.461 1258.801 1260.152 1261.333 1262.217 1263.511 1264.994 1266.476 1267.959 1269.442 1271.158 1273.016 1274.738 1276.451 1278.165 1279.907 -9999 -9999 -9999 -9999 -9999 -9999 -9999 -9999 -9999 -9999 -9999 -9999 -9999 -9999 -9999 -9999 -9999 -9999 -9999 -9999 -9999 -9999 -9999 -9999 -9999 -9999 -9999 -9999 -9999 -9999 -9999 -9999 -9999 -9999 -9999 -9999 -9999 -9999 -9999 -9999 -9999 -9999 -9999 -9999 -9999 -9999 -9999 -9999 -9999 -9999 -9999 -9999 -9999 -9999 -9999 -9999 -9999 -9999 -9999 -9999 -9999 -9999 -9999
-9999 -9999 -9999 -9999 -9999 -9999 -9999 -9999 -9999 -9999 -9999 -9999 -9999 -9999 -9999 -9999 -9999 -9999 -9999 1116.325 1115.453 1114.693 1114.105 1113.513 1112.922 1112.334 1111.746 1111.159 1110.571 1110 1110 1110 1110 1110 1110 1110 1110 1110 1110 1110 1110 1110 1110 1110 1110 1110.394 1111.475 1112.556 1113.638 1114.719 1115.836 1117.04 1118.243 1119.446 1120.776 1122.215 1123.654 1125.093 1126.597 1128.311 1130.021 1131.457 1132.906 1134.382 1135.858 1137.334 1138.809 1140.364 1142.243 1144.122 1146.002 1147.847 1149.678 1151.245 1152.742 1153.327 1153.766 1155.076 1156.367 1157.659 1158.951 1160.351 1161.828 1163.267 1164.582 1165.853 1167.248 1168.644 1170.038 1171.439 1172.841 1174.231 1175.557 1176.883 1178.36 1179.842 1181.408 1182.985 1184.987 1187.129 1189.271 1191.066 1191.152 1194.189 1196.719 1198.049 1199.029 1199.494 1199.959 1202.722 1205.977 1209.196 1211.708 1214.074 1216.439 1218.767 1220.505 1221.632 1222.759 1223.895 1225.055 1226.214 1227.373 1228.533 1229.692 1230.95 1232.258 1233.568 1234.878 1236.188 1237.498 1238.636 1239.769 1241.196 1242.698 1244.199 1245.701 1247.157 1248.582 1250.007 1251.449 1252.704 1253.937 1255.277 1256.617 1257.957 1259.297 1260.688 1262.136 1263.569 1264.453 1265.789 1267.272 1268.755 1270.297 1272.155 1274.012 1275.838 1277.551 1279.265 1281.286 1283.468 1285.642 -9999 -9999 -9999 -9999 -9999 -9999 -9999 -9999 -9999 -9999 -9999 -9999 -9999 -9999 -9999 -9999 -9999 -9999 -9999 -9999 -9999 -9999 -9999 -9999 -9999 -9999 -9999 -9999 -9999 -9999 -9999 -9999 -9999 -9999 -9999 -9999 -9999 -9999 -9999 -9999 -9999 -9999 -9999 -9999 -9999 -9999 -9999 -9999 -9999 -9999 -9999 -9999 -9999 -9999 -9999 -9999 -9999 -9999 -9999 -9999 -9999
-9999 -9999 -9999 -9999 -9999 -9999 -9999 -9999 -9999 -9999 -9999 -9999 -9999 -9999 -9999 -9999 -9999 -9999 -9999 -9999 -9999 1114.826 1113.825 1113.234 1112.625 1112.054 1111.467 1110.879 1110.292 1110 1110 1110 1110 1110 1110 1110 1110 1110 1110 1110 1110 1110 1110 1110 1110 1110.234 1111.315 1112.397 1113.478 1114.665 1115.868 1117.071 1118.274 1119.477 1120.813 1122.252 1123.716 1125.43 1127.144 1128.858 1130.479 1131.916 1133.353 1134.807 1136.283 1137.759 1139.235 1140.906 1142.787 1144.668 1146.55 1148.431 1150.283 1151.818 1153.312 1153.444 1154.229 1155.549 1156.869 1158.178 1159.47 1161.104 1162.976 1164.642 1166.082 1167.307 1168.529 1169.916 1171.543 1172.965 1174.16 1175.562 1176.936 1178.262 1179.589 1180.945 1182.459 1184.036 1185.613 1187.502 1189.644 1194.42 1194.58 1196.451 1198.121 1198.827 1199.883 1200.513 1201.924 1204.528 1207.422 1210.39 1212.556 1214.921 1217.286 1219.651 1221.014 1222.185 1223.323 1224.45 1225.577 1226.731 1227.891 1229.05 1230.232 1231.516 1232.803 1234.108 1235.414 1236.719 1238.027 1239.323 1240.604 1242.099 1243.523 1244.948 1246.373 1247.797 1249.222 1250.665 1252.13 1253.504 1254.77 1255.996 1257.223 1258.453 1259.793 1261.224 1262.672 1264.12 1265.567 1266.689 1268.068 1269.55 1271.294 1273.152 1275.009 1276.867 1278.651 1280.484 1282.666 1284.847 1287.029 1289.21 1289.857 -9999 -9999 -9999 -9999 -9999 -9999 -9999 -9999 -9999 -9999 -9999 -9999 -9999 -9999 -9999 -9999 -9999 -9999 -9999 -9999 -9999 -9999 -9999 -9999 -9999 -9999 -9999 -9999 -9999 -9999 -9999 -9999 -9999 -9999 -9999 -9999 -9999 -9999 -9999 -9999 -9999 -9999 -9999 -9999 -9999 -9999 -9999 -9999 -9999 -9999 -9999 -9999 -9999 -9999 -9999 -9999 -9999 -9999 -9999
-9999 -9999 -9999 -9999 -9999 -9999 -9999 -9999 -9999 -9999 -9999 -9999 -9999 -9999 -9999 -9999 -9999 -9999 -9999 -9999 -9999 -9999 1113.721 1112.954 1112.328 1111.75 1111.187 1110.599 1110.012 1110 1110 1110 1110 1110 1110 1110 1110 1110 1110 1110 1110 1110 1110 1110 1110 1110.074 1111.156 1112.29 1113.493 1114.696 1115.899 1117.102 1118.305 1119.508 1120.85 1122.55 1124.263 1125.977 1127.691 1129.405 1130.938 1132.375 1133.812 1135.249 1136.708 1138.184 1139.66 1141.448 1143.329 1145.21 1147.076 1148.916 1150.756 1152.502 1153.731 1153.663 1154.847 1156.145 1157.444 1158.743 1160.064 1161.918 1163.729 1165.6 1167.457 1168.811 1170.038 1171.491 1173.039 1174.681 1175.937 1177.095 1178.282 1179.642 1181 1182.37 1183.74 1185.196 1186.721 1188.246 1190.017 1197.069 1197.154 1198.331 1198.864 1199.764 1201.087 1202.054 1204.197 1206.801 1209.311 1211.459 1213.635 1215.786 1218.12 1220.244 1221.433 1222.622 1223.801 1224.967 1226.134 1227.268 1228.408 1229.568 1230.805 1232.089 1233.372 1234.656 1235.961 1237.266 1238.572 1239.877 1241.314 1242.738 1244.163 1245.588 1247.012 1248.437 1249.862 1251.323 1252.788 1254.246 1255.559 1256.837 1258.063 1259.289 1260.564 1261.953 1263.34 1264.717 1266.104 1267.551 1268.926 1270.434 1272.291 1274.149 1276.006 1277.863 1279.719 1281.819 1283.958 1286.097 1288.237 1290.292 1291.912 1293.258 -9999 -9999 -9999 -9999 -9999 -9999 -9999 -9999 -9999 -9999 -9999 -9999 -9999 -9999 -9999 -9999 -9999 -9999 -9999 -9999 -9999 -9999 -9999 -9999 -9999 -9999 -9999 -9999 -9999 -9999 -9999 -9999 -9999 -9999 -9999 -9999 -9999 -9999 -9999 -9999 -9999 -9999 -9999 -9999 -9999 -9999 -9999 -9999 -9999 -9999 -9999 -9999 -9999 -9999 -9999 -9999 -9999 -9999
-9999 -9999 -9999 -9999 -9999 -9999 -9999 -9999 -9999 -9999 -9999 -9999 -9999 -9999 -9999 -9999 -9999 -9999 -9999 -9999 -9999 -9999 -9999 -9999 1112.031 1111.426 1110.907 1110.32 1110 1110 1110 1110 1110 1110 1110 1110 1110 1110 1110 1110 1110 1110 1110 1110 1110 1110 1111.129 1112.34 1113.55 1114.76 1115.97 1117.181 1118.391 1119.601 1121.219 1123.038 1124.811 1126.524 1128.238 1129.952 1131.397 1132.834 1134.27 1135.707 1137.144 1138.609 1140.108 1141.99 1143.869 1145.709 1147.549 1149.389 1151.229 1153.051 1153.962 1154.178 1155.504 1156.817 1158.116 1159.414 1161.101 1163.062 1164.846 1166.63 1168.414 1170.301 1171.831 1173.278 1174.73 1176.182 1177.749 1178.908 1180.049 1180.902 1182.292 1183.763 1185.164 1186.534 1187.941 1189.467 1194.429 1198.222 1198.322 1198.737 1199.27 1200.396 1201.869 1203.898 1206.009 1208.118 1210.128 1211.937 1214.285 1216.632 1218.98 1220.663 1221.852 1223.041 1224.23 1225.416 1226.583 1227.749 1228.916 1230.095 1231.378 1232.662 1233.945 1235.229 1236.513 1237.814 1239.119 1240.476 1241.941 1243.378 1244.803 1246.228 1247.652 1249.077 1250.516 1251.981 1253.446 1254.911 1256.302 1257.615 1258.903 1260.141 1261.483 1262.825 1264.242 1265.674 1267.051 1268.427 1269.803 1271.438 1273.249 1275.102 1276.954 1278.807 1280.796 1282.98 1285.12 1287.259 1289.399 1291.196 1292.859 1294.299 1295.598 1296.764 -9999 -9999 -9999 -9999 -9999 -9999 -9999 -9999 -9999 -9999 -9999 -9999 -9999 -9999 -9999 -9999 -9999 -9999 -9999 -9999 -9999 -9999 -9999 -9999 -9999 -9999 -9999 -9999 -9999 -9999 -9999 -9999 -9999 -9999 -9999 -9999 -9999 -9999 -9999 -9999 -9999 -9999 -9999 -9999 -9999 -9999 -9999 -9999 -9999 -9999 -9999 -9999 -9999 -9999 -9999 -9999
-9999 -9999 -9999 -9999 -9999 -9999 -9999 -9999 -9999 -9999 -9999 -9999 -9999 -9999 -9999 -9999 -9999 -9999 -9999 -9999 -9999 -9999 -9999 -9999 -9999 1111.103 1110.628 1110.04 1110 1110 1110 1110 1110 1110 1110 1110 1110 1110 1110 1110 1110 1110 1110 1110 1110 1110.659 1111.531 1112.471 1113.681 1114.892 1116.102 1117.312 1118.522 1119.733 1121.417 1123.236 1125.055 1126.874 1128.693 1130.424 1131.855 1133.292 1134.729 1136.166 1137.603 1139.04 1140.651 1142.502 1144.342 1146.182 1148.022 1149.862 1151.702 1153.541 1154.007 1154.695 1156.072 1157.45 1158.785 1160.133 1162.139 1164.144 1165.989 1167.773 1169.557 1172.039 1173.754 1175.177 1176.599 1178.021 1179.444 1180.531 1181.384 1182.237 1183.252 1184.724 1186.195 1187.666 1189.138 1192.497 1197.752 1198.982 1199.065 1199.142 1199.673 1200.88 1202.702 1204.745 1206.919 1208.988 1210.722 1212.415 1214.762 1217.11 1219.273 1221.037 1222.268 1223.474 1224.649 1225.838 1227.027 1228.198 1229.365 1230.612 1231.956 1233.264 1234.536 1235.809 1237.086 1238.369 1239.667 1241.091 1242.556 1244.018 1245.443 1246.867 1248.292 1249.717 1251.174 1252.639 1254.104 1255.569 1257.034 1258.357 1259.67 1261.057 1262.403 1263.745 1265.099 1266.531 1267.963 1269.384 1270.927 1272.604 1274.281 1276.042 1277.894 1279.747 1281.931 1284.142 1286.282 1288.421 1290.436 1292.099 1293.763 1295.341 1296.654 1297.82 1298.986 1300.153 -9999 -9999 -9999 -9999 -9999 -9999 -9999 -9999 -9999 -9999 -9999 -9999 -9999 -9999 -9999 -9999 -9999 -9999 -9999 -9999 -9999 -9999 -9999 -9999 -9999 -9999 -9999 -9999 -9999 -9999 -9999 -9999 -9999 -9999 -9999 -9999 -9999 -9999 -9999 -9999 -9999 -9999 -9999 -9999 -9999 -9999 -9999 -9999 -9999 -9999 -9999 -9999 -9999 -9999
-9999 -9999 -9999 -9999 -9999 -9999 -9999 -9999 -9999 -9999 -9999 -9999 -9999 -9999 -9999 -9999 -9999 -9999 -9999 -9999 -9999 -9999 -9999 -9999 -9999 -9999 -9999 -9999 1110 1110 1110.004 1110.01 1110.016 1110 1110 1110 1110 1110 1110 1110 1110 1110 1110 1110 1110.474 1111.347 1112.22 1113.092 1113.965 1115.023 1116.233 1117.444 1118.654 1119.864 1121.615 1123.434 1125.253 1127.071 1129.24 1130.991 1132.486 1133.91 1135.334 1136.757 1138.181 1139.604 1141.163 1142.979 1144.815 1146.649 1148.482 1150.316 1152.156 1153.964 1153.974 1155.13 1156.552 1157.973 1159.395 1161.154 1163.176 1165.182 1167.133 1168.917 1171.065 1173.776 1175.677 1177.1 1178.522 1179.945 1180.794 1181.619 1182.719 1183.572 1184.425 1185.684 1187.155 1188.627 1190.233 1196.892 1198.164 1199.608 1199.793 1200.03 1200.479 1201.712 1203.309 1205.4 1207.766 1209.857 1211.317 1212.893 1215.24 1217.475 1219.331 1221.029 1222.633 1223.853 1225.073 1226.293 1227.467 1228.635 1229.814 1231.13 1232.474 1233.818 1235.16 1236.432 1237.704 1238.976 1240.277 1241.705 1243.17 1244.635 1246.083 1247.507 1248.932 1250.367 1251.832 1253.297 1254.762 1256.227 1257.692 1259.099 1260.443 1261.856 1263.268 1264.664 1266.006 1267.387 1268.819 1270.293 1271.964 1273.688 1275.421 1277.125 1278.834 1280.829 1283.066 1285.303 1287.444 1289.583 1291.339 1293.003 1294.667 1296.33 1297.71 1298.877 1300.043 1301.209 1302.375 -9999 -9999 -9999 -9999 -9999 -9999 -9999 -9999 -9999 -9999 -9999 -9999 -9999 -9999 -9999 -9999 -9999 -9999 -9999 -9999 -9999 -9999 -9999 -9999 -9999 -9999 -9999 -9999 -9999 -9999 -9999 -9999 -9999 -9999 -9999 -9999 -9999 -9999 -9999 -9999 -9999 -9999 -9999 -9999 -9999 -9999 -9999 -9999 -9999 -9999 -9999 -9999 -9999
-9999 -9999 -9999 -9999 -9999 -9999 -9999 -9999 -9999 -9999 -9999 -9999 -9999 -9999 -9999 -9999 -9999 -9999 -9999 -9999 -9999 -9999 -9999 -9999 -9999 -9999 -9999 -9999 -9999 1110.068 1110.075 1110.081 1110.029 1110 1110 1110 1110 1110 1110 1110 1110 1110 1110 1110.29 1111.163 1112.035 1112.908 1113.781 1114.653 1115.526 1116.398 1117.575 1118.786 1119.996 1121.813 1123.631 1125.65 1127.838 1130.018 1131.536 1133.055 1134.549 1135.973 1137.397 1138.82 1140.276 1141.886 1143.496 1145.306 1147.142 1148.978 1150.814 1152.651 1153.932 1154.033 1155.685 1157.264 1158.685 1160.151 1162.16 1164.174 1166.208 1168.225 1170.092 1172.803 1175.514 1177.6 1179.023 1180.258 1181.084 1181.91 1182.736 1183.569 1184.763 1185.76 1186.644 1188.116 1189.587 1192.518 1197.28 1198.54 1200.05 1200.303 1200.642 1201.079 1202.163 1203.589 1205.999 1208.161 1210.336 1211.911 1213.37 1215.671 1217.547 1219.391 1221.074 1222.806 1224.217 1225.437 1226.657 1227.878 1229.098 1230.352 1231.741 1233.033 1234.335 1235.679 1237.023 1238.328 1239.6 1240.97 1242.385 1243.801 1245.25 1246.715 1248.147 1249.572 1251.025 1252.49 1253.955 1255.42 1256.885 1258.35 1259.816 1261.242 1262.654 1264.067 1265.479 1266.891 1268.267 1269.676 1271.293 1272.963 1274.634 1276.348 1278.081 1279.814 1281.971 1284.201 1286.438 1288.606 1290.579 1292.243 1293.906 1295.57 1297.234 1298.767 1299.933 1301.099 1302.17 1303.215 1304.259 1305.495 -9999 -9999 -9999 -9999 -9999 -9999 -9999 -9999 -9999 -9999 -9999 -9999 -9999 -9999 -9999 -9999 -9999 -9999 -9999 -9999 -9999 -9999 -9999 -9999 -9999 -9999 -9999 -9999 -9999 -9999 -9999 -9999 -9999 -9999 -9999 -9999 -9999 -9999 -9999 -9999 -9999 -9999 -9999 -9999 -9999 -9999 -9999 -9999 -9999 -9999 -9999
-9999 -9999 -9999 -9999 -9999 -9999 -9999 -9999 -9999 -9999 -9999 -9999 -9999 -9999 -9999 -9999 -9999 -9999 -9999 -9999 -9999 -9999 -9999 -9999 -9999 -9999 -9999 -9999 -9999 -9999 -9999 1110.152 1110 1110 1110 1110 1110 1110 1110 1110 1110 1110 1110 1110.899 1111.828 1112.724 1113.596 1114.469 1115.342 1116.214 1117.087 1117.959 1118.917 1120.191 1122.06 1124.248 1126.436 1128.623 1130.563 1132.082 1133.601 1135.12 1136.612 1138.036 1139.459 1140.999 1142.609 1144.219 1145.83 1147.633 1149.469 1151.305 1153.144 1153.898 1154.481 1156.132 1157.782 1159.397 1161.157 1163.166 1165.176 1167.196 1169.23 1171.743 1174.541 1177.252 1179.523 1180.549 1181.375 1182.201 1183.026 1183.852 1184.678 1185.61 1186.804 1187.948 1189.076 1191.302 1194.585 1196.94 1198.972 1200.527 1200.858 1200.976 1201.769 1203.099 1204.959 1206.906 1209.218 1210.523 1211.856 1213.858 1215.754 1217.603 1219.45 1221.119 1222.755 1224.582 1225.802 1227.022 1228.242 1229.565 1230.995 1232.354 1233.726 1235.07 1236.36 1237.651 1238.941 1240.243 1241.664 1243.079 1244.494 1245.909 1247.329 1248.787 1250.218 1251.682 1253.148 1254.613 1256.114 1257.62 1259.126 1260.577 1261.953 1263.338 1264.767 1266.196 1267.625 1269.055 1270.606 1272.29 1273.963 1275.633 1277.304 1279.008 1280.944 1283.151 1285.358 1287.573 1289.768 1291.483 1293.146 1294.81 1296.474 1298.137 1299.801 1300.897 1301.942 1302.987 1304.031 1305.076 1306.12 1307.426 1308.941 -9999 -9999 -9999 -9999 -9999 -9999 -9999 -9999 -9999 -9999 -9999 -9999 -9999 -9999 -9999 -9999 -9999 -9999 -9999 -9999 -9999 -9999 -9999 -9999 -9999 -9999 -9999 -9999 -9999 -9999 -9999 -9999 -9999 -9999 -9999 -9999 -9999 -9999 -9999 -9999 -9999 -9999 -9999 -9999 -9999 -9999 -9999 -9999 -9999
-9999 -9999 -9999 -9999 -9999 -9999 -9999 -9999 -9999 -9999 -9999 -9999 -9999 -9999 -9999 -9999 -9999 -9999 -9999 -9999 -9999 -9999 -9999 -9999 -9999 -9999 -9999 -9999 -9999 -9999 -9999 -9999 -9999 1110 1110 1110 1110 1110 1110 1110 1110 1110 1110 1110.86 1111.789 1112.718 1113.647 1114.576 1115.505 1116.434 1117.363 1118.292 1119.166 1120.586 1122.837 1125.034 1127.221 1129.409 1131.109 1132.627 1134.146 1135.665 1137.184 1138.675 1140.112 1141.722 1143.332 1144.943 1146.553 1148.163 1149.959 1151.8 1153.665 1153.875 1154.966 1156.661 1158.304 1159.947 1162.027 1164.121 1166.182 1168.191 1170.302 1173.107 1175.877 1178.572 1180.518 1181.555 1182.491 1183.317 1184.143 1184.969 1185.795 1186.62 1187.651 1188.845 1190.046 1192.885 1194.93 1196.521 1198.734 1200.787 1201.168 1201.884 1203.28 1204.901 1206.869 1207.998 1209.793 1211.024 1212.203 1213.726 1215.829 1217.573 1219.275 1221.164 1222.8 1224.574 1226.166 1227.426 1228.778 1230.162 1231.648 1233.008 1234.368 1235.728 1237.099 1238.397 1239.687 1240.912 1242.159 1243.609 1245.058 1246.508 1247.958 1249.408 1250.907 1252.412 1253.918 1255.424 1256.93 1258.436 1259.942 1261.322 1262.698 1264.074 1265.449 1266.856 1268.285 1269.714 1271.432 1273.222 1274.921 1276.599 1278.277 1279.956 1282.149 1284.356 1286.563 1288.766 1290.684 1292.338 1293.992 1295.646 1297.3 1298.954 1300.405 1301.51 1302.625 1303.739 1304.848 1305.892 1306.937 1307.981 1309.357 1310.872 1312.778 -9999 -9999 -9999 -9999 -9999 -9999 -9999 -9999 -9999 -9999 -9999 -9999 -9999 -9999 -9999 -9999 -9999 -9999 -9999 -9999 -9999 -9999 -9999 -9999 -9999 -9999 -9999 -9999 -9999 -9999 -9999 -9999 -9999 -9999 -9999 -9999 -9999 -9999 -9999 -9999 -9999 -9999 -9999 -9999 -9999 -9999 -9999
-9999 -9999 -9999 -9999 -9999 -9999 -9999 -9999 -9999 -9999 -9999 -9999 -9999 -9999 -9999 -9999 -9999 -9999 -9999 -9999 -9999 -9999 -9999 -9999 -9999 -9999 -9999 -9999 -9999 -9999 -9999 -9999 -9999 -9999 -9999 1110 1110 1110 1110 1110 1110 1110 1110 1110.82 1111.749 1112.678 1113.601 1114.473 1115.345 1116.217 1117.089 1117.963 1119.217 1120.998 1123.382 1125.633 1127.884 1130.089 1131.599 1133.122 1134.644 1136.167 1137.689 1139.212 1140.857 1142.472 1144.087 1145.701 1147.316 1148.931 1150.585 1152.428 1153.99 1153.946 1155.458 1157.138 1158.852 1160.631 1162.725 1164.818 1166.87 1168.917 1171.417 1174.137 1176.833 1179.529 1180.909 1182.01 1183.112 1184.08 1185.033 1185.986 1186.911 1187.737 1188.563 1189.693 1191.066 1193.725 1195.317 1196.908 1198.499 1200.504 1201.156 1202.057 1204.809 1206.573 1207.952 1209.331 1210.709 1212.224 1213.311 1214.603 1216.285 1217.764 1219.351 1220.925 1222.318 1224.097 1226.041 1227.992 1229.376 1230.768 1232.301 1233.661 1235.021 1236.381 1237.741 1239.101 1240.404 1241.608 1242.812 1244.075 1245.525 1246.975 1248.424 1249.874 1251.532 1253.21 1254.797 1256.299 1257.8 1259.302 1260.684 1261.998 1263.395 1264.792 1266.19 1267.57 1268.945 1270.468 1272.258 1274.048 1275.837 1277.552 1279.23 1281.195 1283.402 1285.559 1287.622 1289.685 1291.451 1293.135 1294.789 1296.443 1298.096 1299.75 1300.936 1302.038 1303.147 1304.261 1305.376 1306.49 1307.604 1308.719 1309.833 1311.97 1314.288 1316.416 -9999 -9999 -9999 -9999 -9999 -9999 -9999 -9999 -9999 -9999 -9999 -9999 -9999 -9999 -9999 -9999 -9999 -9999 -9999 -9999 -9999 -9999 -9999 -9999 -9999 -9999 -9999 -9999 -9999 -9999 -9999 -9999 -9999 -9999 -9999 -9999 -9999 -9999 -9999 -9999 -9999 -9999 -9999 -9999 -9999 -9999
-9999 -9999 -9999 -9999 -9999 -9999 -9999 -9999 -9999 -9999 -9999 -9999 -9999 -9999 -9999 -9999 -9999 -9999 -9999 -9999 -9999 -9999 -9999 -9999 -9999 -9999 -9999 -9999 -9999 -9999 -9999 -9999 -9999 -9999 -9999 -9999 1110 1110 1110 1110 1110 1110 1110 1110.653 1111.525 1112.397 1113.269 1114.141 1115.013 1115.885 1116.895 1118.149 1119.404 1121.392 1123.926 1126.177 1128.429 1130.448 1131.933 1133.432 1134.954 1136.477 1137.999 1139.522 1141.293 1143.178 1144.948 1146.563 1148.178 1149.792 1151.407 1153.319 1154.299 1154.554 1156.223 1157.901 1159.578 1161.121 1163.21 1165.258 1167.305 1169.352 1172.055 1175.063 1177.789 1180.198 1181.3 1182.401 1183.503 1184.604 1185.652 1186.605 1187.558 1188.511 1189.464 1190.633 1192.179 1194.112 1195.703 1197.294 1198.882 1200.465 1200.885 1202.3 1206.478 1208.079 1209.457 1210.816 1212.008 1213.199 1214.765 1215.997 1217.231 1218.751 1220.064 1221.339 1222.528 1223.942 1225.73 1227.806 1229.777 1231.424 1232.955 1234.315 1235.674 1237.078 1238.499 1239.764 1241.379 1242.391 1243.508 1244.711 1245.991 1247.441 1248.891 1250.394 1252.072 1253.75 1255.427 1257.105 1258.688 1260.161 1261.439 1262.718 1263.996 1265.391 1266.788 1268.186 1269.583 1271.432 1273.225 1274.953 1276.682 1278.453 1280.24 1282.352 1284.415 1286.478 1288.541 1290.502 1292.214 1293.927 1295.585 1297.239 1298.893 1300.364 1301.467 1302.569 1303.671 1304.784 1305.898 1307.012 1308.127 1309.241 1310.814 1313.301 1315.733 1318.066 1320.054 1321.836 -9999 -9999 -9999 -9999 -9999 -9999 -9999 -9999 -9999 -9999 -9999 -9999 -9999 -9999 -9999 -9999 -9999 -9999 -9999 -9999 -9999 -9999 -9999 -9999 -9999 -9999 -9999 -9999 -9999 -9999 -9999 -9999 -9999 -9999 -9999 -9999 -9999 -9999 -9999 -9999 -9999 -9999 -9999 -9999
-9999 -9999 -9999 -9999 -9999 -9999 -9999 -9999 -9999 -9999 -9999 -9999 -9999 -9999 -9999 -9999 -9999 -9999 -9999 -9999 -9999 -9999 -9999 -9999 -9999 -9999 -9999 -9999 -9999 -9999 -9999 -9999 -9999 -9999 -9999 -9999 -9999 -9999 1110 1110 1110 1110 1110 1110.32 1111.192 1112.064 1112.936 1113.808 1114.681 1115.827 1117.081 1118.335 1119.59 1121.786 1124.439 1126.722 1128.973 1130.807 1132.292 1133.776 1135.265 1136.787 1138.309 1139.832 1141.677 1143.562 1145.447 1147.333 1149.04 1150.654 1152.269 1154.186 1154.612 1155.435 1157.131 1158.808 1160.428 1161.908 1163.532 1165.622 1167.711 1169.786 1172.694 1175.701 1178.708 1180.589 1181.69 1182.792 1183.893 1184.995 1186.096 1187.198 1188.177 1189.13 1190.126 1191.575 1193.118 1194.556 1196.064 1197.647 1199.231 1200.738 1202.178 1203.97 1208.147 1209.584 1210.884 1212.075 1213.392 1214.748 1215.906 1217.201 1218.498 1220.098 1221.551 1222.454 1223.534 1224.766 1226.153 1227.953 1229.797 1231.743 1233.521 1235.101 1236.522 1237.943 1239.174 1240.305 1242.168 1243.448 1244.456 1245.464 1246.611 1247.908 1249.357 1250.934 1252.612 1254.289 1255.967 1257.645 1259.338 1260.866 1262.189 1263.473 1264.751 1266.03 1267.387 1268.784 1270.265 1272.306 1274.348 1276.131 1277.86 1279.588 1281.279 1283.271 1285.334 1287.398 1289.461 1291.265 1292.978 1294.69 1296.382 1298.036 1299.69 1300.895 1301.997 1303.099 1304.202 1305.306 1306.42 1307.535 1308.649 1309.763 1312.01 1314.536 1316.968 1319.399 1321.156 1322.663 1324.203 1325.943 -9999 -9999 -9999 -9999 -9999 -9999 -9999 -9999 -9999 -9999 -9999 -9999 -9999 -9999 -9999 -9999 -9999 -9999 -9999 -9999 -9999 -9999 -9999 -9999 -9999 -9999 -9999 -9999 -9999 -9999 -9999 -9999 -9999 -9999 -9999 -9999 -9999 -9999 -9999 -9999 -9999 -9999
-9999 -9999 -9999 -9999 -9999 -9999 -9999 -9999 -9999 -9999 -9999 -9999 -9999 -9999 -9999 -9999 -9999 -9999 -9999 -9999 -9999 -9999 -9999 -9999 -9999 -9999 -9999 -9999 -9999 -9999 -9999 -9999 -9999 -9999 -9999 -9999 -9999 -9999 -9999 1110.019 1110 1110 1110 1110 1110.86 1111.732 1112.604 1113.504 1114.759 1116.013 1117.267 1118.521 1119.776 1122.179 1124.833 1127.267 1129.518 1131.167 1132.651 1134.135 1135.62 1137.104 1138.62 1140.176 1142.061 1143.946 1145.831 1147.717 1149.602 1151.487 1153.131 1154.979 1154.898 1156.277 1158.038 1159.716 1161.229 1162.708 1164.188 1165.944 1168.033 1170.177 1173.189 1176.202 1179.232 1181.036 1182.338 1183.387 1184.436 1185.485 1186.534 1187.588 1188.69 1189.749 1191.032 1192.402 1194.181 1196.05 1197.687 1199.025 1200.363 1202.806 1204.678 1206.126 1209.71 1211.02 1212.375 1213.731 1215.087 1216.43 1217.51 1218.571 1219.646 1221.248 1222.965 1223.89 1224.763 1226.013 1227.244 1228.611 1230.226 1231.955 1233.567 1234.897 1237.146 1238.589 1239.671 1241.1 1242.958 1244.506 1245.514 1246.522 1247.53 1248.538 1249.824 1251.474 1253.159 1254.853 1256.546 1258.24 1259.933 1261.365 1262.786 1264.121 1265.44 1266.758 1268.063 1269.383 1271.14 1273.181 1275.222 1277.263 1279.038 1280.744 1282.424 1284.191 1286.254 1288.317 1290.316 1292.028 1293.741 1295.453 1297.166 1298.832 1300.324 1301.426 1302.528 1303.63 1304.733 1305.835 1306.943 1308.057 1309.171 1310.654 1313.206 1315.757 1318.202 1320.402 1321.945 1323.488 1324.996 1326.626 1328.365 1328.998 -9999 -9999 -9999 -9999 -9999 -9999 -9999 -9999 -9999 -9999 -9999 -9999 -9999 -9999 -9999 -9999 -9999 -9999 -9999 -9999 -9999 -9999 -9999 -9999 -9999 -9999 -9999 -9999 -9999 -9999 -9999 -9999 -9999 -9999 -9999 -9999 -9999 -9999 -9999 -9999
-9999 -9999 -9999 -9999 -9999 -9999 -9999 -9999 -9999 -9999 -9999 -9999 -9999 -9999 -9999 -9999 -9999 -9999 -9999 -9999 -9999 -9999 -9999 -9999 -9999 -9999 -9999 -9999 -9999 -9999 -9999 -9999 -9999 -9999 -9999 -9999 -9999 -9999 -9999 -9999 -9999 1110.063 1110.016 1110 1110.528 1111.4 1112.436 1113.69 1114.945 1116.199 1117.453 1118.708 1119.962 1122.573 1125.227 1127.812 1130.041 1131.526 1133.01 1134.495 1135.979 1137.464 1138.948 1140.56 1142.445 1144.33 1146.215 1148.101 1149.987 1151.879 1153.771 1155.088 1155.166 1157.013 1158.86 1160.55 1162.03 1163.509 1164.988 1166.468 1168.355 1170.641 1173.654 1176.689 1179.737 1181.266 1182.65 1184.035 1185.283 1186.332 1187.381 1188.431 1189.48 1190.639 1191.907 1193.374 1195.244 1197.113 1198.983 1200.817 1202.156 1205.143 1207.066 1208.394 1211.298 1212.736 1214.071 1215.427 1216.783 1218.043 1219.108 1220.164 1221.131 1222.279 1223.641 1225.145 1226.287 1227.378 1228.647 1229.871 1231.017 1232.348 1233.55 1234.679 1236.143 1238.574 1240.212 1241.969 1243.747 1245.484 1246.572 1247.58 1248.588 1249.596 1250.904 1252.09 1253.76 1255.447 1257.141 1258.835 1260.443 1261.864 1263.285 1264.706 1266.053 1267.371 1268.69 1270.012 1271.862 1273.93 1275.997 1278.065 1280.126 1281.889 1283.568 1285.247 1287.173 1289.237 1291.079 1292.792 1294.504 1296.216 1297.929 1299.629 1300.855 1301.957 1303.059 1304.161 1305.263 1306.365 1307.468 1308.579 1309.694 1311.85 1314.401 1316.953 1319.437 1321.186 1322.728 1324.271 1325.814 1327.329 1329.049 1330.838 1332.756 -9999 -9999 -9999 -9999 -9999 -9999 -9999 -9999 -9999 -9999 -9999 -9999 -9999 -9999 -9999 -9999 -9999 -9999 -9999 -9999 -9999 -9999 -9999 -9999 -9999 -9999 -9999 -9999 -9999 -9999 -9999 -9999 -9999 -9999 -9999 -9999 -9999 -9999 -9999
-9999 -9999 -9999 -9999 -9999 -9999 -9999 -9999 -9999 -9999 -9999 -9999 -9999 -9999 -9999 -9999 -9999 -9999 -9999 -9999 -9999 -9999 -9999 -9999 -9999 -9999 -9999 -9999 -9999 -9999 -9999 -9999 -9999 -9999 -9999 -9999 -9999 -9999 -9999 -9999 -9999 -9999 -9999 1110 1110.195 1111.368 1112.622 1113.877 1115.131 1116.385 1117.64 1118.894 1120.313 1122.967 1125.62 1128.274 1130.401 1131.885 1133.369 1134.854 1136.395 1137.943 1139.491 1141.222 1143.137 1144.979 1146.836 1148.725 1150.615 1152.506 1154.398 1155.156 1155.821 1157.787 1159.754 1161.202 1162.588 1164.17 1165.752 1167.268 1168.747 1171.105 1174.147 1177.195 1180.11 1181.495 1182.88 1184.265 1185.65 1187.035 1188.229 1189.278 1190.395 1191.58 1192.613 1193.889 1195.491 1197.539 1199.588 1201.636 1203.685 1207.308 1209.404 1210.278 1212.888 1214.613 1215.868 1217.122 1218.478 1219.644 1220.647 1221.614 1222.581 1223.653 1225.015 1226.419 1227.718 1228.951 1230.211 1231.512 1232.45 1233.305 1234.228 1235.279 1236.61 1238.443 1240.753 1242.8 1244.536 1246.273 1247.629 1248.637 1249.645 1251.064 1252.501 1253.673 1254.844 1256.123 1257.794 1259.464 1260.951 1262.363 1263.784 1265.205 1266.626 1267.984 1269.303 1270.84 1272.622 1274.49 1276.558 1278.625 1280.658 1282.622 1284.585 1286.392 1288.093 1290.13 1291.842 1293.555 1295.267 1296.951 1298.6 1300.202 1301.439 1302.521 1303.603 1304.692 1305.794 1306.896 1307.999 1309.102 1310.495 1313.046 1315.598 1318.149 1320.425 1321.969 1323.512 1325.055 1326.597 1328.14 1329.733 1331.622 1333.552 1335.43 1337.041 -9999 -9999 -9999 -9999 -9999 -9999 -9999 -9999 -9999 -9999 -9999 -9999 -9999 -9999 -9999 -9999 -9999 -9999 -9999 -9999 -9999 -9999 -9999 -9999 -9999 -9999 -9999 -9999 -9999 -9999 -9999 -9999 -9999 -9999 -9999 -9999 -9999
-9999 -9999 -9999 -9999 -9999 -9999 -9999 -9999 -9999 -9999 -9999 -9999 -9999 -9999 -9999 -9999 -9999 -9999 -9999 -9999 -9999 -9999 -9999 -9999 -9999 -9999 -9999 -9999 -9999 -9999 -9999 -9999 -9999 -9999 -9999 -9999 -9999 -9999 -9999 -9999 -9999 -9999 -9999 -9999 -9999 1111.603 1112.85 1114.097 1115.344 1116.59 1117.837 1119.084 1120.862 1123.483 1126.109 1128.734 1130.83 1132.378 1133.926 1135.474 1137.022 1138.57 1140.138 1141.948 1143.888 1145.801 1147.635 1149.476 1151.319 1153.162 1155.04 1155.234 1156.674 1158.772 1160.516 1161.89 1163.263 1164.637 1166.145 1167.727 1169.309 1171.604 1174.652 1177.7 1180.34 1181.725 1183.11 1184.495 1185.879 1187.264 1188.649 1190.08 1191.117 1192.15 1193.265 1194.597 1195.93 1197.597 1199.645 1201.694 1204.959 1209.169 1211.343 1211.989 1214.478 1216.203 1217.783 1219.001 1220.158 1221.13 1222.097 1223.064 1224.031 1225.027 1226.389 1227.801 1229.004 1230.337 1231.634 1232.906 1233.961 1234.995 1235.676 1236.78 1238.079 1240.442 1242.174 1243.717 1245.326 1247.063 1248.687 1249.695 1251.121 1252.843 1254.097 1255.272 1256.443 1257.613 1258.784 1260.131 1261.532 1262.933 1264.333 1265.734 1267.134 1268.546 1269.916 1271.669 1273.451 1275.233 1277.118 1279.186 1281.19 1283.154 1285.117 1287.081 1289.044 1290.848 1292.497 1294.146 1295.795 1297.444 1299.093 1300.602 1301.94 1303.177 1304.259 1305.341 1306.423 1307.505 1308.588 1309.67 1311.696 1314.251 1316.805 1319.36 1321.161 1322.71 1324.256 1325.803 1327.349 1328.895 1330.566 1332.451 1334.336 1336.266 1338.105 1339.715 1341.323 -9999 -9999 -9999 -9999 -9999 -9999 -9999 -9999 -9999 -9999 -9999 -9999 -9999 -9999 -9999 -9999 -9999 -9999 -9999 -9999 -9999 -9999 -9999 -9999 -9999 -9999 -9999 -9999 -9999 -9999 -9999 -9999 -9999 -9999 -9999
-9999 -9999 -9999 -9999 -9999 -9999 -9999 -9999 -9999 -9999 -9999 -9999 -9999 -9999 -9999 -9999 -9999 -9999 -9999 -9999 -9999 -9999 -9999 -9999 -9999 -9999 -9999 -9999 -9999 -9999 -9999 -9999 -9999 -9999 -9999 -9999 -9999 -9999 -9999 -9999 -9999 -9999 -9999 -9999 -9999 -9999 -9999 1114.279 1115.526 1116.773 1118.02 1119.313 1121.715 1124.225 1126.851 1129.476 1131.366 1133.004 1134.552 1136.1 1137.649 1139.197 1140.871 1142.681 1144.557 1146.554 1148.473 1150.295 1152.132 1153.973 1155.438 1155.406 1157.46 1159.712 1161.204 1162.578 1163.951 1165.325 1166.699 1168.121 1169.703 1172.306 1175.157 1178.205 1180.57 1181.954 1183.339 1184.724 1186.174 1187.729 1189.285 1190.622 1191.686 1192.719 1193.973 1195.305 1196.638 1197.97 1199.703 1202.425 1206.666 1210.713 1212.896 1213.131 1215.409 1217.4 1219.391 1220.663 1221.546 1222.499 1223.547 1224.514 1225.481 1226.448 1227.771 1229.057 1230.39 1231.671 1232.943 1234.018 1235.145 1236.709 1238.124 1239.225 1240.635 1242.12 1244 1244.798 1246.299 1247.979 1249.605 1251.2 1252.904 1254.439 1255.693 1256.87 1258.041 1259.149 1260.234 1261.366 1262.228 1263.401 1264.806 1266.21 1267.615 1269.02 1270.556 1272.393 1274.23 1276.061 1277.844 1279.747 1281.723 1283.683 1285.637 1287.59 1289.544 1291.305 1292.991 1294.64 1296.289 1297.938 1299.587 1301.002 1302.34 1303.678 1304.914 1305.996 1307.079 1308.161 1309.243 1310.705 1313.072 1315.474 1318.018 1320.347 1321.896 1323.445 1324.994 1326.541 1328.087 1329.634 1331.512 1333.447 1335.307 1337.168 1339.028 1340.773 1342.372 1343.952 -9999 -9999 -9999 -9999 -9999 -9999 -9999 -9999 -9999 -9999 -9999 -9999 -9999 -9999 -9999 -9999 -9999 -9999 -9999 -9999 -9999 -9999 -9999 -9999 -9999 -9999 -9999 -9999 -9999 -9999 -9999 -9999 -9999 -9999
-9999 -9999 -9999 -9999 -9999 -9999 -9999 -9999 -9999 -9999 -9999 -9999 -9999 -9999 -9999 -9999 -9999 -9999 -9999 -9999 -9999 -9999 -9999 -9999 -9999 -9999 -9999 -9999 -9999 -9999 -9999 -9999 -9999 -9999 -9999 -9999 -9999 -9999 -9999 -9999 -9999 -9999 -9999 -9999 -9999 -9999 -9999 -9999 1144.853 1116.955 1118.202 1120.166 1122.568 1124.969 1127.593 1130.142 1131.848 1133.554 1135.179 1136.727 1138.275 1139.823 1141.604 1143.414 1145.227 1147.223 1149.22 1151.145 1152.958 1154.791 1155.478 1156.171 1158.447 1160.439 1161.819 1163.2 1164.585 1165.969 1167.354 1168.739 1170.245 1173.013 1175.853 1178.711 1180.799 1182.239 1183.795 1185.35 1186.906 1188.461 1190.012 1191.163 1192.256 1193.349 1194.681 1196.013 1197.346 1198.678 1200.355 1204.027 1208.222 1211.682 1214.37 1214.573 1216.557 1218.726 1220.537 1221.84 1222.934 1223.817 1224.88 1225.963 1226.931 1227.898 1229.152 1230.437 1231.685 1232.754 1233.823 1234.892 1236.009 1237.586 1239.157 1241.003 1242.98 1244.155 1244.757 1245.91 1247.281 1248.641 1250.071 1251.506 1253.181 1254.892 1256.833 1258.321 1259.403 1260.492 1261.558 1262.745 1263.685 1264.531 1265.376 1266.649 1268.054 1269.459 1271.13 1272.967 1274.803 1276.641 1278.523 1280.411 1282.234 1284.18 1286.134 1288.087 1290.036 1291.738 1293.44 1295.133 1296.782 1298.431 1300.065 1301.403 1302.74 1304.078 1305.416 1306.652 1307.734 1308.816 1309.898 1312.124 1314.485 1316.887 1319.289 1321.082 1322.631 1324.18 1325.729 1327.278 1328.826 1330.477 1332.459 1334.441 1336.303 1338.164 1340.022 1341.762 1343.42 1345.013 1346.58 1348.148 -9999 -9999 -9999 -9999 -9999 -9999 -9999 -9999 -9999 -9999 -9999 -9999 -9999 -9999 -9999 -9999 -9999 -9999 -9999 -9999 -9999 -9999 -9999 -9999 -9999 -9999 -9999 -9999 -9999 -9999 -9999 -9999
-9999 -9999 -9999 -9999 -9999 -9999 -9999 -9999 -9999 -9999 -9999 -9999 -9999 -9999 -9999 -9999 -9999 -9999 -9999 -9999 -9999 -9999 -9999 -9999 -9999 -9999 -9999 -9999 -9999 -9999 -9999 -9999 -9999 -9999 -9999 -9999 -9999 -9999 -9999 -9999 -9999 -9999 -9999 -9999 -9999 -9999 -9999 -9999 -9999 -9999 1119.409 1121.019 1123.42 1125.822 1128.334 1130.624 1132.33 1134.036 1135.743 1137.354 1138.902 1140.526 1142.337 1144.147 1145.957 1147.893 1149.889 1151.885 1153.817 1155.194 1155.297 1157.218 1159.459 1161.052 1162.433 1163.814 1165.195 1166.576 1167.961 1169.345 1171.45 1174.201 1176.952 1179.352 1181.223 1182.838 1184.447 1186.056 1187.638 1189.193 1190.554 1191.704 1192.825 1194.057 1195.389 1197.042 1198.94 1200.837 1202.735 1205.385 1209.62 1212.735 1215.668 1216.055 1217.89 1220.15 1221.453 1222.756 1224.059 1225.205 1226.127 1227.26 1228.378 1229.348 1230.421 1231.491 1232.56 1233.629 1234.698 1235.767 1236.874 1238.449 1240.027 1242.177 1243.353 1244.699 1246.467 1248.107 1248.963 1250.27 1251.449 1252.549 1253.875 1255.393 1257.035 1258.6 1260.455 1261.844 1262.924 1264.124 1265.143 1265.989 1266.834 1267.679 1268.525 1269.898 1271.703 1273.586 1275.493 1277.4 1279.307 1281.161 1282.984 1284.807 1286.631 1288.584 1290.469 1292.171 1293.873 1295.576 1297.276 1298.925 1300.465 1301.803 1303.141 1304.478 1305.816 1307.154 1308.389 1309.472 1311.2 1313.544 1315.898 1318.3 1320.422 1321.872 1323.397 1324.942 1326.487 1328.031 1329.576 1331.423 1333.405 1335.387 1337.299 1339.159 1340.954 1342.693 1344.433 1346.068 1347.641 1349.209 1350.775 1352.318 -9999 -9999 -9999 -9999 -9999 -9999 -9999 -9999 -9999 -9999 -9999 -9999 -9999 -9999 -9999 -9999 -9999 -9999 -9999 -9999 -9999 -9999 -9999 -9999 -9999 -9999 -9999 -9999 -9999 -9999
-9999 -9999 -9999 -9999 -9999 -9999 -9999 -9999 -9999 -9999 -9999 -9999 -9999 -9999 -9999 -9999 -9999 -9999 -9999 -9999 -9999 -9999 -9999 -9999 -9999 -9999 -9999 -9999 -9999 -9999 -9999 -9999 -9999 -9999 -9999 -9999 -9999 -9999 -9999 -9999 -9999 -9999 -9999 -9999 -9999 -9999 -9999 -9999 -9999 -9999 -9999 -9999 1123.509 1126.675 1129.077 1131.106 1132.812 1134.519 1136.225 1137.931 1139.529 1141.259 1143.069 1144.88 1146.69 1148.562 1150.558 1152.555 1154.604 1155.021 1156.064 1158.176 1160.157 1161.708 1163.075 1164.442 1165.808 1167.189 1168.57 1169.952 1172.495 1174.895 1177.294 1179.693 1181.461 1183.136 1184.775 1186.384 1187.993 1189.602 1190.917 1192.135 1193.356 1195.319 1197.345 1199.37 1201.319 1203.217 1205.114 1207.012 1210.69 1213.707 1216.72 1217.447 1218.978 1220.896 1222.418 1223.691 1224.974 1226.277 1227.476 1228.508 1229.641 1230.587 1231.387 1232.356 1233.435 1234.504 1235.573 1236.642 1237.738 1239.313 1241.218 1242.55 1244.076 1245.602 1246.882 1248.59 1250.466 1251.918 1253.535 1254.922 1255.5 1256.572 1257.844 1259.017 1260.56 1262.398 1263.993 1265.503 1266.601 1267.446 1268.293 1269.164 1270.03 1271.02 1272.463 1274.37 1276.277 1278.185 1280.088 1281.911 1283.734 1285.557 1287.38 1289.188 1290.889 1292.596 1294.303 1296.009 1297.711 1299.413 1300.866 1302.203 1303.541 1304.879 1306.216 1307.554 1308.892 1310.275 1312.619 1314.964 1317.311 1319.713 1321.27 1322.711 1324.198 1325.722 1327.258 1328.803 1330.441 1332.402 1334.363 1336.333 1338.295 1340.145 1341.885 1343.625 1345.364 1347.104 1348.702 1350.269 1351.835 1353.401 1354.93 1356.453 -9999 -9999 -9999 -9999 -9999 -9999 -9999 -9999 -9999 -9999 -9999 -9999 -9999 -9999 -9999 -9999 -9999 -9999 -9999 -9999 -9999 -9999 -9999 -9999 -9999 -9999 -9999 -9999
-9999 -9999 -9999 -9999 -9999 -9999 -9999 -9999 -9999 -9999 -9999 -9999 -9999 -9999 -9999 -9999 -9999 -9999 -9999 -9999 -9999 -9999 -9999 -9999 -9999 -9999 -9999 -9999 -9999 -9999 -9999 -9999 -9999 -9999 -9999 -9999 -9999 -9999 -9999 -9999 -9999 -9999 -9999 -9999 -9999 -9999 -9999 -9999 -9999 -9999 -9999 -9999 -9999 -9999 1128.472 1131.495 1133.211 1134.927 1136.642 1138.358 1140.194 1142.02 1143.802 1145.613 1147.423 1149.233 1151.228 1153.274 1154.511 1154.908 1156.417 1158.428 1160.363 1162.009 1163.656 1165.219 1166.586 1167.952 1169.319 1170.854 1172.836 1175.235 1177.635 1180.023 1181.699 1183.375 1185.05 1186.711 1188.32 1189.929 1191.165 1192.37 1193.608 1194.936 1196.962 1198.987 1201.013 1203.038 1205.064 1207.741 1211.67 1214.722 1217.772 1218.88 1220.063 1221.595 1223.128 1224.66 1225.968 1227.241 1228.514 1229.756 1230.667 1231.516 1232.414 1233.288 1234.255 1235.377 1236.448 1237.517 1238.603 1240.242 1241.748 1243.347 1244.627 1245.908 1247.188 1248.816 1250.627 1252.516 1254.309 1256.086 1257.37 1258.482 1259.343 1260.225 1261.606 1263.17 1264.31 1265.253 1267.118 1269.025 1269.896 1270.652 1271.499 1272.75 1274.177 1275.536 1277.062 1278.969 1280.838 1282.661 1284.456 1286.161 1287.865 1289.57 1291.263 1292.957 1294.664 1296.371 1298.078 1299.786 1301.383 1302.856 1304.193 1305.531 1306.869 1308.206 1309.544 1311.342 1313.875 1316.383 1318.727 1320.676 1322.117 1323.559 1325.001 1326.525 1328.049 1329.574 1331.42 1333.381 1335.341 1337.302 1339.263 1341.076 1342.816 1344.556 1346.296 1348.035 1349.763 1351.33 1352.895 1354.461 1356.018 1357.541 1359.064 -9999 -9999 -9999 -9999 -9999 -9999 -9999 -9999 -9999 -9999 -9999 -9999 -9999 -9999 -9999 -9999 -9999 -9999 -9999 -9999 -9999 -9999 -9999 -9999 -9999 -9999 -9999
-9999 -9999 -9999 -9999 -9999 -9999 -9999 -9999 -9999 -9999 -9999 -9999 -9999 -9999 -9999 -9999 -9999 -9999 -9999 -9999 -9999 -9999 -9999 -9999 -9999 -9999 -9999 -9999 -9999 -9999 -9999 -9999 -9999 -9999 -9999 -9999 -9999 -9999 -9999 -9999 -9999 -9999 -9999 -9999 -9999 -9999 -9999 -9999 -9999 -9999 -9999 -9999 -9999 -9999 -9999 -9999 1133.435 1135.225 1137.028 1139.002 1140.976 1142.95 1144.809 1146.575 1148.34 1150.106 1151.988 1153.829 1153.978 1155.22 1156.992 1158.68 1160.569 1162.215 1163.862 1165.508 1167.154 1168.73 1170.12 1171.822 1173.524 1175.576 1177.975 1180.261 1181.937 1183.613 1185.288 1186.964 1188.639 1190.195 1191.394 1192.588 1193.859 1195.13 1196.578 1198.604 1200.629 1202.655 1204.68 1208.659 1212.281 1215.456 1218.63 1220.14 1220.718 1222.292 1223.827 1225.359 1226.892 1228.246 1229.518 1230.607 1231.583 1232.451 1233.301 1234.241 1235.188 1236.154 1237.276 1238.392 1239.467 1241.063 1242.372 1243.653 1244.933 1246.214 1247.494 1249.042 1250.834 1252.727 1254.504 1256.285 1258.073 1259.904 1261.285 1262.054 1262.836 1263.72 1264.921 1266.41 1267.922 1269.576 1271.257 1272.095 1273.2 1274.479 1275.958 1277.317 1278.676 1280.027 1281.429 1283.134 1284.838 1286.543 1288.247 1289.951 1291.641 1293.33 1295.026 1296.733 1298.44 1300.136 1301.718 1303.3 1304.882 1306.237 1307.575 1308.912 1310.381 1312.418 1314.727 1317.32 1319.913 1321.524 1322.965 1324.407 1325.849 1327.328 1328.852 1330.453 1332.354 1334.315 1336.276 1338.236 1340.192 1342.099 1343.85 1345.59 1347.33 1349.07 1350.727 1352.292 1353.932 1355.521 1357.087 1358.63 1360.142 1361.384 1362.626 -9999 -9999 -9999 -9999 -9999 -9999 -9999 -9999 -9999 -9999 -9999 -9999 -9999 -9999 -9999 -9999 -9999 -9999 -9999 -9999 -9999 -9999 -9999 -9999 -9999
-9999 -9999 -9999 -9999 -9999 -9999 -9999 -9999 -9999 -9999 -9999 -9999 -9999 -9999 -9999 -9999 -9999 -9999 -9999 -9999 -9999 -9999 -9999 -9999 -9999 -9999 -9999 -9999 -9999 -9999 -9999 -9999 -9999 -9999 -9999 -9999 -9999 -9999 -9999 -9999 -9999 -9999 -9999 -9999 -9999 -9999 -9999 -9999 -9999 -9999 -9999 -9999 -9999 -9999 -9999 -9999 -9999 -9999 1137.81 1139.784 1141.758 1143.732 1145.705 1147.599 1149.364 1151.13 1153.018 1153.758 1154.152 1155.809 1157.462 1159.116 1160.752 1162.386 1164.023 1165.66 1167.297 1168.934 1170.709 1172.741 1174.492 1176.194 1178.316 1180.5 1182.175 1183.851 1185.526 1187.204 1188.893 1190.417 1191.608 1192.839 1194.11 1195.381 1196.652 1198.22 1200.246 1202.271 1205.446 1209.578 1212.867 1215.946 1219.037 1220.825 1221.254 1222.95 1224.491 1226.031 1227.571 1229.112 1230.401 1231.377 1232.353 1233.33 1234.236 1235.086 1236.068 1237.078 1238.052 1239.175 1240.287 1241.398 1242.678 1243.959 1245.239 1246.52 1247.8 1249.267 1251.103 1252.922 1254.703 1256.467 1258.105 1259.873 1261.842 1263.726 1264.886 1265.209 1266.567 1267.901 1268.95 1270.397 1271.797 1273.086 1274.795 1276.208 1277.712 1279.098 1280.356 1281.286 1282.618 1284.108 1285.598 1287.089 1288.629 1290.33 1292.02 1293.709 1295.398 1297.094 1298.801 1300.471 1302.053 1303.635 1305.217 1306.799 1308.281 1309.619 1311.456 1313.493 1315.578 1318.171 1320.529 1322.325 1323.811 1325.255 1326.697 1328.139 1329.655 1331.421 1333.28 1335.241 1337.202 1339.163 1341.093 1343 1344.903 1346.643 1348.383 1350.11 1351.673 1353.235 1354.798 1356.434 1358.073 1359.713 1361.013 1362.254 1363.496 1364.738 1365.98 -9999 -9999 -9999 -9999 -9999 -9999 -9999 -9999 -9999 -9999 -9999 -9999 -9999 -9999 -9999 -9999 -9999 -9999 -9999 -9999 -9999 -9999 -9999
-9999 -9999 -9999 -9999 -9999 -9999 -9999 -9999 -9999 -9999 -9999 -9999 -9999 -9999 -9999 -9999 -9999 -9999 -9999 -9999 -9999 -9999 -9999 -9999 -9999 -9999 -9999 -9999 -9999 -9999 -9999 -9999 -9999 -9999 -9999 -9999 -9999 -9999 -9999 -9999 -9999 -9999 -9999 -9999 -9999 -9999 -9999 -9999 -9999 -9999 -9999 -9999 -9999 -9999 -9999 -9999 -9999 -9999 -9999 -9999 1142.405 1144.514 1146.487 1148.461 1150.388 1152.154 1153.663 1153.699 1154.654 1155.957 1157.61 1159.263 1160.896 1162.513 1164.13 1165.746 1167.363 1168.996 1170.786 1172.818 1174.851 1176.883 1178.864 1180.738 1182.421 1184.111 1185.8 1187.489 1189.179 1190.629 1191.822 1193.091 1194.362 1195.633 1196.904 1198.175 1199.863 1202.233 1206.391 1210.473 1213.198 1216.319 1219.437 1221.359 1221.693 1223.451 1225.204 1226.881 1228.421 1229.961 1231.031 1232.084 1233.122 1234.1 1235.076 1236.021 1236.885 1237.895 1238.905 1239.951 1241.034 1242.115 1243.196 1244.277 1245.545 1246.826 1248.106 1249.493 1251.34 1253.12 1254.832 1256.47 1258.108 1259.842 1261.805 1263.669 1265.509 1267.442 1268.753 1269.714 1270.685 1271.609 1272.673 1273.818 1274.966 1276.667 1278.891 1280.685 1281.745 1282.468 1283.834 1285.325 1286.815 1288.305 1289.511 1290.588 1292.326 1294.064 1295.776 1297.465 1299.162 1300.806 1302.388 1303.97 1305.552 1307.134 1308.728 1310.495 1312.531 1314.568 1316.605 1319.023 1321.119 1322.915 1324.656 1326.099 1327.543 1328.986 1330.552 1332.389 1334.226 1336.167 1338.128 1340.086 1341.994 1343.901 1345.808 1347.696 1349.436 1351.056 1352.618 1354.181 1355.743 1357.306 1358.936 1360.447 1361.722 1362.997 1364.272 1365.547 1366.822 1368.092 -9999 -9999 -9999 -9999 -9999 -9999 -9999 -9999 -9999 -9999 -9999 -9999 -9999 -9999 -9999 -9999 -9999 -9999 -9999 -9999 -9999 -9999
-9999 -9999 -9999 -9999 -9999 -9999 -9999 -9999 -9999 -9999 -9999 -9999 -9999 -9999 -9999 -9999 -9999 -9999 -9999 -9999 -9999 -9999 -9999 -9999 -9999 -9999 -9999 -9999 -9999 -9999 -9999 -9999 -9999 -9999 -9999 -9999 -9999 -9999 -9999 -9999 -9999 -9999 -9999 -9999 -9999 -9999 -9999 -9999 -9999 -9999 -9999 -9999 -9999 -9999 -9999 -9999 -9999 -9999 -9999 -9999 -9999 -9999 1146.897 1149.243 1151.217 1153.178 1153.59 1154.096 1155.254 1156.411 1157.757 1159.411 1161.041 1162.657 1164.274 1165.89 1167.523 1169.264 1171.179 1173.221 1175.264 1177.306 1179.349 1181.136 1182.662 1184.333 1186.03 1187.726 1189.423 1190.835 1192.071 1193.342 1194.613 1195.884 1197.155 1198.426 1199.708 1203.34 1207.734 1211.301 1213.951 1216.6 1219.674 1221.727 1221.962 1223.752 1225.542 1227.332 1229.122 1230.557 1231.614 1232.671 1233.729 1234.769 1235.806 1236.823 1237.799 1238.712 1239.722 1240.865 1241.922 1242.946 1243.97 1245.024 1246.105 1247.186 1248.412 1249.719 1251.537 1253.196 1254.834 1256.472 1258.11 1259.811 1261.768 1263.612 1265.492 1267.538 1269.611 1271.597 1272.996 1273.959 1274.54 1275.153 1276.031 1277.136 1278.658 1280.492 1282.547 1283.65 1285.035 1286.541 1288.031 1288.858 1289.858 1291.116 1292.537 1294.275 1296.012 1297.749 1299.486 1301.218 1302.837 1304.456 1306.074 1307.693 1309.312 1311.414 1313.609 1315.645 1317.681 1319.874 1321.709 1323.505 1325.3 1326.943 1328.387 1329.83 1331.564 1333.357 1335.194 1337.094 1339.054 1340.987 1342.895 1344.802 1346.709 1348.617 1350.428 1351.991 1353.553 1355.116 1356.678 1358.241 1359.803 1361.147 1362.443 1363.738 1365.033 1366.328 1367.623 1368.919 1370.214 1371.804 -9999 -9999 -9999 -9999 -9999 -9999 -9999 -9999 -9999 -9999 -9999 -9999 -9999 -9999 -9999 -9999 -9999 -9999 -9999 -9999
-9999 -9999 -9999 -9999 -9999 -9999 -9999 -9999 -9999 -9999 -9999 -9999 -9999 -9999 -9999 -9999 -9999 -9999 -9999 -9999 -9999 -9999 -9999 -9999 -9999 -9999 -9999 -9999 -9999 -9999 -9999 -9999 -9999 -9999 -9999 -9999 -9999 -9999 -9999 -9999 -9999 -9999 -9999 -9999 -9999 -9999 -9999 -9999 -9999 -9999 -9999 -9999 -9999 -9999 -9999 -9999 -9999 -9999 -9999 -9999 -9999 -9999 -9999 -9999 1151.389 1153.258 1153.461 1154.911 1155.911 1157.012 1158.164 1159.558 1161.185 1162.801 1164.517 1166.258 1168 1169.741 1171.738 1173.78 1175.823 1177.867 1179.911 1181.601 1183.211 1184.74 1186.261 1187.902 1189.599 1191.053 1192.539 1193.829 1195.119 1196.41 1197.7 1198.99 1200.714 1204.163 1208.479 1211.683 1214.44 1217.198 1219.987 1222.214 1222.41 1224.25 1226.107 1227.976 1229.845 1231.077 1232.207 1233.255 1234.312 1235.369 1236.416 1237.454 1238.491 1239.528 1240.637 1241.831 1242.992 1244.016 1245.04 1246.064 1247.089 1248.113 1249.137 1250.163 1251.56 1253.198 1254.837 1256.475 1258.113 1259.781 1261.714 1263.554 1265.589 1267.682 1269.804 1271.837 1273.652 1275.607 1276.924 1277.464 1277.784 1278.434 1279.474 1280.614 1282.281 1284.109 1286.141 1287.554 1288.745 1289.868 1290.933 1292.329 1293.689 1294.82 1296.241 1297.978 1299.715 1301.54 1303.381 1305.04 1306.658 1308.277 1309.896 1312.302 1314.687 1316.722 1318.758 1320.628 1322.344 1324.094 1325.89 1327.686 1329.231 1330.828 1332.601 1334.374 1336.162 1338.02 1339.981 1341.888 1343.796 1345.703 1347.656 1349.613 1351.186 1352.723 1354.271 1355.833 1357.396 1358.958 1360.481 1361.924 1363.357 1364.652 1365.947 1367.243 1368.538 1369.833 1371.128 1372.784 1374.509 1376.162 -9999 -9999 -9999 -9999 -9999 -9999 -9999 -9999 -9999 -9999 -9999 -9999 -9999 -9999 -9999 -9999 -9999 -9999
-9999 -9999 -9999 -9999 -9999 -9999 -9999 -9999 -9999 -9999 -9999 -9999 -9999 -9999 -9999 -9999 -9999 -9999 -9999 -9999 -9999 -9999 -9999 -9999 -9999 -9999 -9999 -9999 -9999 -9999 -9999 -9999 -9999 -9999 -9999 -9999 -9999 -9999 -9999 -9999 -9999 -9999 -9999 -9999 -9999 -9999 -9999 -9999 -9999 -9999 -9999 -9999 -9999 -9999 -9999 -9999 -9999 -9999 -9999 -9999 -9999 -9999 -9999 -9999 -9999 1150.829 1154.88 1155.941 1156.7 1157.763 1158.865 1159.966 1161.583 1163.252 1164.994 1166.735 1168.476 1170.255 1172.298 1174.341 1176.385 1178.428 1180.387 1182.061 1183.734 1185.286 1186.815 1188.344 1189.86 1191.462 1192.964 1194.402 1195.692 1196.983 1198.273 1199.563 1202.172 1205.454 1209.265 1212.083 1214.881 1217.678 1220.542 1222.79 1222.907 1224.982 1226.851 1228.72 1230.37 1231.544 1232.718 1233.86 1234.909 1235.958 1237.01 1238.064 1239.101 1240.179 1241.522 1242.798 1243.992 1245.086 1246.11 1247.135 1248.159 1249.183 1250.21 1251.251 1252.307 1253.421 1254.839 1256.477 1258.115 1259.754 1261.657 1263.639 1265.752 1267.875 1269.998 1271.957 1273.846 1275.763 1277.349 1278.991 1280.628 1281.133 1281.68 1282.38 1283.355 1284.602 1286.302 1288.127 1289.879 1290.927 1292.081 1293.306 1295.132 1296.262 1297.393 1298.523 1299.945 1301.783 1303.624 1305.465 1307.242 1308.861 1310.729 1313.19 1315.65 1317.8 1319.836 1321.48 1323.14 1324.875 1326.61 1328.345 1330.088 1331.865 1333.638 1335.411 1337.184 1338.967 1340.882 1342.815 1344.771 1346.727 1348.683 1350.483 1351.962 1353.473 1355.02 1356.567 1358.114 1359.676 1361.143 1362.586 1364.029 1365.489 1366.862 1368.157 1369.452 1370.747 1372.043 1373.763 1375.488 1377.213 1378.863 1380.567 -9999 -9999 -9999 -9999 -9999 -9999 -9999 -9999 -9999 -9999 -9999 -9999 -9999 -9999 -9999 -9999
-9999 -9999 -9999 -9999 -9999 -9999 -9999 -9999 -9999 -9999 -9999 -9999 -9999 -9999 -9999 -9999 -9999 -9999 -9999 -9999 -9999 -9999 -9999 -9999 -9999 -9999 -9999 -9999 -9999 -9999 -9999 -9999 -9999 -9999 -9999 -9999 -9999 -9999 -9999 -9999 -9999 -9999 -9999 -9999 -9999 -9999 -9999 -9999 -9999 -9999 -9999 -9999 -9999 -9999 -9999 -9999 -9999 -9999 -9999 -9999 -9999 -9999 -9999 -9999 -9999 -9999 -9999 1157.484 1157.729 1158.514 1159.615 1160.961 1162.514 1164.254 1165.926 1167.589 1169.252 1170.943 1172.859 1174.903 1176.946 1178.99 1180.847 1182.521 1184.194 1185.832 1187.361 1188.89 1190.416 1191.867 1193.369 1194.871 1196.266 1197.556 1198.846 1200.347 1203.63 1206.912 1210.203 1212.831 1215.458 1218.167 1221.022 1223.192 1223.218 1225.423 1227.595 1229.464 1230.837 1232.011 1233.186 1234.36 1235.514 1236.563 1237.611 1238.66 1239.708 1240.969 1242.312 1243.655 1244.958 1246.152 1247.181 1248.205 1249.229 1250.257 1251.298 1252.339 1253.38 1254.463 1255.577 1256.754 1258.118 1259.756 1261.7 1263.822 1265.945 1268.068 1270.184 1272.086 1274.041 1275.664 1277.429 1279.1 1280.771 1282.512 1284.275 1285.156 1285.696 1286.379 1287.388 1288.689 1290.151 1291.991 1293.229 1294.428 1296.54 1297.705 1298.835 1299.835 1300.865 1302.312 1303.879 1305.716 1307.553 1309.391 1311.617 1314.077 1316.537 1318.878 1320.723 1322.333 1323.943 1325.67 1327.405 1329.14 1330.969 1332.866 1334.642 1336.419 1338.195 1339.972 1341.891 1343.841 1345.797 1347.754 1349.71 1351.259 1352.737 1354.223 1355.77 1357.317 1358.864 1360.376 1361.802 1363.249 1364.692 1366.135 1367.595 1369.057 1370.367 1371.662 1373.017 1374.742 1376.467 1378.193 1380.026 1381.871 1383.698 -9999 -9999 -9999 -9999 -9999 -9999 -9999 -9999 -9999 -9999 -9999 -9999 -9999 -9999 -9999
-9999 -9999 -9999 -9999 -9999 -9999 -9999 -9999 -9999 -9999 -9999 -9999 -9999 -9999 -9999 -9999 -9999 -9999 -9999 -9999 -9999 -9999 -9999 -9999 -9999 -9999 -9999 -9999 -9999 -9999 -9999 -9999 -9999 -9999 -9999 -9999 -9999 -9999 -9999 -9999 -9999 -9999 -9999 -9999 -9999 -9999 -9999 -9999 -9999 -9999 -9999 -9999 -9999 -9999 -9999 -9999 -9999 -9999 -9999 -9999 -9999 -9999 -9999 -9999 -9999 -9999 -9999 -9999 -9999 1160.362 1160.491 1161.967 1163.444 1165.153 1166.894 1168.607 1170.278 1171.991 1173.704 1175.464 1177.508 1179.552 1181.307 1182.98 1184.654 1186.328 1187.907 1189.436 1190.948 1192.38 1193.811 1195.276 1196.779 1198.129 1199.419 1201.805 1205.088 1208.177 1210.978 1213.616 1216.202 1218.778 1221.422 1223.687 1223.713 1225.828 1228.008 1230.128 1231.304 1232.479 1233.653 1234.827 1236.001 1237.168 1238.216 1239.265 1240.403 1241.75 1243.098 1244.445 1245.788 1247.119 1248.251 1249.275 1250.304 1251.345 1252.386 1253.427 1254.468 1255.509 1256.619 1257.733 1258.846 1260.145 1261.96 1264.016 1266.138 1268.261 1270.37 1272.281 1273.979 1275.744 1277.509 1279.209 1280.905 1282.615 1284.509 1286.752 1288.304 1288.775 1289.298 1289.973 1290.864 1292.129 1293.858 1295.504 1297.517 1299.139 1299.838 1301.022 1302.004 1303.484 1304.905 1306.326 1307.821 1309.659 1312.092 1314.661 1317.23 1319.887 1321.575 1323.185 1324.795 1326.465 1328.2 1329.935 1331.85 1333.772 1335.641 1337.418 1339.194 1341.049 1342.97 1344.892 1346.824 1348.78 1350.557 1352.035 1353.513 1354.992 1356.52 1358.067 1359.614 1361.063 1362.479 1363.858 1365.353 1366.797 1368.24 1369.702 1371.163 1372.576 1373.996 1375.723 1377.47 1379.216 1381.167 1383.166 1385.029 1385.174 1386.045 -9999 -9999 -9999 -9999 -9999 -9999 -9999 -9999 -9999 -9999 -9999 -9999 -9999
-9999 -9999 -9999 -9999 -9999 -9999 -9999 -9999 -9999 -9999 -9999 -9999 -9999 -9999 -9999 -9999 -9999 -9999 -9999 -9999 -9999 -9999 -9999 -9999 -9999 -9999 -9999 -9999 -9999 -9999 -9999 -9999 -9999 -9999 -9999 -9999 -9999 -9999 -9999 -9999 -9999 -9999 -9999 -9999 -9999 -9999 -9999 -9999 -9999 -9999 -9999 -9999 -9999 -9999 -9999 -9999 -9999 -9999 -9999 -9999 -9999 -9999 -9999 -9999 -9999 -9999 -9999 -9999 -9999 -9999 -9999 1163.419 1164.45 1166.053 1167.793 1169.518 1171.246 1172.991 1174.736 1176.465 1178.178 1180.093 1181.766 1183.44 1185.114 1186.788 1188.453 1190.049 1191.481 1192.912 1194.344 1195.775 1197.206 1198.686 1199.992 1203.221 1206.098 1208.986 1211.632 1214.105 1216.681 1219.257 1221.925 1224.328 1224.354 1226.37 1228.583 1230.533 1231.836 1233.04 1234.182 1235.324 1236.469 1237.643 1238.817 1239.87 1241.18 1242.528 1243.875 1245.223 1246.57 1247.918 1249.264 1250.35 1251.391 1252.432 1253.473 1254.514 1255.555 1256.596 1257.661 1258.775 1259.888 1261.368 1263.148 1265.021 1266.526 1268.454 1270.521 1272.294 1274.059 1275.824 1277.589 1279.317 1281.039 1282.756 1284.945 1286.899 1288.847 1290.56 1291.899 1292.513 1293.009 1293.528 1294.76 1295.96 1297.632 1299.575 1301.028 1302.015 1303.143 1304.655 1306.077 1307.498 1308.919 1310.401 1312.859 1315.553 1318.247 1320.601 1322.322 1324.037 1325.647 1327.26 1328.995 1330.809 1332.731 1334.653 1336.575 1338.416 1340.208 1342.13 1344.051 1345.972 1347.893 1349.797 1351.332 1352.811 1354.289 1355.768 1357.27 1358.817 1360.333 1361.75 1363.166 1364.556 1365.915 1367.409 1368.903 1370.347 1371.808 1373.269 1375.12 1376.867 1378.614 1380.379 1382.31 1384.346 1385.284 1385.505 1387.615 1389.489 1389.428 -9999 -9999 -9999 -9999 -9999 -9999 -9999 -9999 -9999 -9999 -9999
-9999 -9999 -9999 -9999 -9999 -9999 -9999 -9999 -9999 -9999 -9999 -9999 -9999 -9999 -9999 -9999 -9999 -9999 -9999 -9999 -9999 -9999 -9999 -9999 -9999 -9999 -9999 -9999 -9999 -9999 -9999 -9999 -9999 -9999 -9999 -9999 -9999 -9999 -9999 -9999 -9999 -9999 -9999 -9999 -9999 -9999 -9999 -9999 -9999 -9999 -9999 -9999 -9999 -9999 -9999 -9999 -9999 -9999 -9999 -9999 -9999 -9999 -9999 -9999 -9999 -9999 -9999 -9999 -9999 -9999 -9999 -9999 -9999 1166.952 1168.635 1170.297 1172.054 1173.825 1175.57 1177.315 1179.06 1180.713 1182.317 1183.986 1185.655 1187.324 1188.997 1190.594 1192.025 1193.455 1194.885 1196.315 1197.745 1199.253 1201.08 1204.016 1206.927 1209.815 1212.366 1214.776 1217.185 1219.736 1222.45 1224.892 1224.911 1226.932 1229.33 1230.938 1232.241 1233.544 1234.789 1235.931 1237.073 1238.215 1239.357 1240.549 1241.884 1243.222 1244.561 1245.899 1247.237 1248.575 1249.913 1251.26 1252.327 1253.416 1254.506 1255.595 1256.643 1257.684 1258.725 1259.817 1261.271 1262.791 1264.416 1266.245 1268.082 1269.587 1270.891 1272.375 1274.139 1275.904 1277.669 1279.426 1281.104 1283.109 1285.097 1287.029 1288.946 1290.633 1292.76 1295.243 1295.942 1296.089 1297.244 1298.156 1298.569 1299.735 1301.826 1303.084 1304.282 1305.827 1307.248 1308.663 1310.123 1311.705 1314.172 1316.748 1319.324 1321.275 1322.996 1324.717 1326.437 1328.11 1329.791 1331.69 1333.612 1335.534 1337.456 1339.378 1341.235 1343.029 1344.823 1346.617 1348.411 1350.19 1351.851 1353.512 1355.065 1356.543 1358.022 1359.567 1361.02 1362.436 1363.852 1365.269 1366.63 1367.971 1369.465 1370.96 1372.545 1374.439 1376.333 1378.157 1379.904 1381.731 1383.586 1385.198 1385.229 1386.82 1388.893 1390.557 1391.735 1392.738 1393.415 -9999 -9999 -9999 -9999 -9999 -9999 -9999 -9999 -9999
-9999 -9999 -9999 -9999 -9999 -9999 -9999 -9999 -9999 -9999 -9999 -9999 -9999 -9999 -9999 -9999 -9999 -9999 -9999 -9999 -9999 -9999 -9999 -9999 -9999 -9999 -9999 -9999 -9999 -9999 -9999 -9999 -9999 -9999 -9999 -9999 -9999 -9999 -9999 -9999 -9999 -9999 -9999 -9999 -9999 -9999 -9999 -9999 -9999 -9999 -9999 -9999 -9999 -9999 -9999 -9999 -9999 -9999 -9999 -9999 -9999 -9999 -9999 -9999 -9999 -9999 -9999 -9999 -9999 -9999 -9999 -9999 -9999 -9999 -9999 1171.085 1172.86 1174.635 1176.403 1178.148 1179.894 1181.45 1182.994 1184.595 1186.264 1187.933 1189.66 1191.145 1192.575 1194.005 1195.735 1197.477 1199.219 1200.961 1202.703 1204.631 1207.425 1210.361 1213.118 1215.695 1218.08 1220.478 1223.025 1225.157 1225.11 1227.678 1230.041 1231.344 1232.646 1233.949 1235.252 1236.538 1237.68 1238.822 1239.964 1241.216 1242.484 1243.822 1245.16 1246.499 1247.837 1249.175 1250.517 1251.864 1253.168 1254.222 1255.286 1256.375 1257.465 1258.554 1259.644 1261.166 1262.693 1264.214 1265.735 1267.515 1269.345 1270.9 1272.163 1273.391 1274.616 1275.984 1277.749 1279.514 1281.272 1283.293 1285.211 1287.128 1289.046 1290.747 1293.063 1295.546 1297.469 1298.175 1299.325 1300.479 1301.027 1301.586 1302.692 1304.074 1305.347 1306.999 1308.396 1309.865 1311.505 1313.009 1315.485 1318.034 1319.702 1321.547 1323.503 1325.337 1327.069 1328.801 1330.566 1332.444 1334.327 1336.209 1338.091 1339.973 1341.692 1343.437 1345.231 1347.025 1348.819 1350.568 1352.229 1353.89 1355.551 1357.212 1358.798 1360.29 1361.706 1363.123 1364.539 1365.955 1367.371 1368.704 1370.043 1371.71 1373.489 1375.755 1377.589 1379.426 1381.254 1383.083 1384.914 1385.181 1385.96 1388.018 1390.052 1391.249 1392.445 1393.615 1394.72 1395.825 -9999 -9999 -9999 -9999 -9999 -9999 -9999 -9999
-9999 -9999 -9999 -9999 -9999 -9999 -9999 -9999 -9999 -9999 -9999 -9999 -9999 -9999 -9999 -9999 -9999 -9999 -9999 -9999 -9999 -9999 -9999 -9999 -9999 -9999 -9999 -9999 -9999 -9999 -9999 -9999 -9999 -9999 -9999 -9999 -9999 -9999 -9999 -9999 -9999 -9999 -9999 -9999 -9999 -9999 -9999 -9999 -9999 -9999 -9999 -9999 -9999 -9999 -9999 -9999 -9999 -9999 -9999 -9999 -9999 -9999 -9999 -9999 -9999 -9999 -9999 -9999 -9999 -9999 -9999 -9999 -9999 -9999 -9999 -9999 -9999 1175.447 1177.217 1178.982 1180.643 1182.188 1183.732 1185.276 1186.873 1188.566 1190.256 1192.218 1193.96 1195.702 1197.443 1199.185 1200.927 1202.669 1204.411 1206.282 1208.218 1210.816 1213.552 1216.289 1219.025 1221.528 1223.923 1225.293 1225.779 1228.324 1230.444 1231.749 1233.052 1234.354 1235.657 1236.96 1238.262 1239.429 1240.628 1241.884 1243.139 1244.422 1245.76 1247.099 1248.437 1249.775 1251.12 1252.467 1253.814 1255.069 1256.124 1257.178 1258.245 1259.335 1260.685 1262.446 1264.098 1265.631 1267.158 1268.786 1270.474 1271.886 1273.288 1274.619 1275.892 1277.118 1278.34 1279.594 1281.475 1283.393 1285.31 1287.228 1289.145 1290.957 1293.367 1295.897 1297.919 1298.717 1299.83 1301.379 1303.018 1304.131 1305.001 1306.064 1306.265 1307.744 1309.223 1310.877 1312.85 1314.313 1316.442 1318.028 1319.838 1321.626 1323.582 1325.537 1327.493 1329.388 1331.189 1333.027 1334.894 1336.776 1338.658 1340.493 1342.209 1343.926 1345.643 1347.434 1349.228 1350.946 1352.607 1354.268 1355.929 1357.604 1359.338 1360.971 1362.39 1363.808 1365.225 1366.642 1368.058 1369.447 1370.949 1372.591 1374.384 1376.689 1378.965 1380.78 1382.605 1384.403 1384.731 1385.385 1387.175 1389.215 1390.744 1391.94 1393.136 1394.332 1395.495 1396.6 1397.705 1398.81 -9999 -9999 -9999 -9999 -9999 -9999
-9999 -9999 -9999 -9999 -9999 -9999 -9999 -9999 -9999 -9999 -9999 -9999 -9999 -9999 -9999 -9999 -9999 -9999 -9999 -9999 -9999 -9999 -9999 -9999 -9999 -9999 -9999 -9999 -9999 -9999 -9999 -9999 -9999 -9999 -9999 -9999 -9999 -9999 -9999 -9999 -9999 -9999 -9999 -9999 -9999 -9999 -9999 -9999 -9999 -9999 -9999 -9999 -9999 -9999 -9999 -9999 -9999 -9999 -9999 -9999 -9999 -9999 -9999 -9999 -9999 -9999 -9999 -9999 -9999 -9999 -9999 -9999 -9999 -9999 -9999 -9999 -9999 -9999 -9999 1179.819 1181.368 1182.84 1184.387 1185.934 1187.48 1188.992 1190.572 1192.29 1194.537 1196.784 1199.031 1200.894 1202.636 1204.378 1206.12 1207.933 1209.869 1211.696 1214.019 1216.463 1219.164 1221.854 1224.492 1225.228 1226.362 1228.862 1230.705 1232 1233.301 1234.625 1235.949 1237.272 1238.596 1239.92 1241.296 1242.551 1243.807 1245.062 1246.36 1247.698 1249.037 1250.377 1251.724 1253.071 1254.418 1255.765 1256.971 1258.025 1259.08 1260.23 1261.946 1263.707 1265.467 1267.03 1268.563 1270.081 1271.455 1272.866 1274.277 1275.675 1277.007 1278.338 1279.619 1280.828 1282.031 1283.492 1285.409 1287.327 1289.244 1291.187 1293.697 1296.271 1298.369 1299.258 1300.515 1302.154 1303.794 1305.447 1306.855 1308.144 1309.214 1309.698 1310.458 1311.457 1312.791 1314.608 1316.366 1318.19 1319.969 1321.726 1323.66 1325.616 1327.572 1329.364 1331.547 1333.605 1335.488 1337.343 1339.225 1341.01 1342.727 1344.444 1346.161 1347.878 1349.636 1351.324 1353.017 1354.751 1356.485 1358.22 1359.954 1361.535 1363.065 1364.483 1365.901 1367.32 1368.738 1370.217 1371.855 1373.473 1375.28 1377.584 1379.885 1381.986 1383.674 1384.136 1384.894 1386.68 1388.422 1390.238 1391.435 1392.631 1393.827 1395.023 1396.22 1397.374 1398.479 1399.584 1401.121 1402.88 -9999 -9999 -9999 -9999
-9999 -9999 -9999 -9999 -9999 -9999 -9999 -9999 -9999 -9999 -9999 -9999 -9999 -9999 -9999 -9999 -9999 -9999 -9999 -9999 -9999 -9999 -9999 -9999 -9999 -9999 -9999 -9999 -9999 -9999 -9999 -9999 -9999 -9999 -9999 -9999 -9999 -9999 -9999 -9999 -9999 -9999 -9999 -9999 -9999 -9999 -9999 -9999 -9999 -9999 -9999 -9999 -9999 -9999 -9999 -9999 -9999 -9999 -9999 -9999 -9999 -9999 -9999 -9999 -9999 -9999 -9999 -9999 -9999 -9999 -9999 -9999 -9999 -9999 -9999 -9999 -9999 -9999 -9999 -9999 1182.248 1183.827 1185.176 1186.516 1187.926 1189.405 1190.892 1192.493 1194.325 1196.572 1198.819 1201.066 1203.313 1205.56 1207.807 1209.584 1211.155 1213.037 1215.361 1217.425 1219.288 1222.031 1224.767 1224.969 1226.887 1229.379 1230.973 1232.268 1233.563 1234.857 1236.159 1237.482 1238.806 1240.141 1241.587 1243.032 1244.474 1245.73 1246.985 1248.298 1249.636 1250.981 1252.328 1253.675 1255.022 1256.369 1257.716 1258.873 1259.927 1261.685 1263.445 1265.053 1266.729 1268.428 1269.962 1271.253 1272.538 1273.894 1275.263 1276.668 1278.063 1279.394 1280.851 1282.136 1283.289 1284.492 1285.894 1287.426 1289.344 1291.497 1294.071 1296.645 1298.819 1299.773 1301.29 1302.93 1304.586 1306.235 1307.633 1308.894 1310.091 1311.271 1312.467 1313.226 1314.183 1315.412 1316.676 1318.349 1320.1 1321.851 1323.739 1325.581 1327.318 1329.274 1331.612 1333.67 1335.728 1337.786 1339.792 1341.527 1343.269 1345.017 1346.766 1348.514 1350.245 1351.898 1353.632 1355.367 1357.101 1358.835 1360.518 1362.095 1363.672 1365.159 1366.577 1367.995 1369.432 1371.081 1372.732 1374.377 1376.175 1378.474 1380.771 1382.512 1383.179 1384.273 1385.81 1387.619 1389.498 1390.97 1392.145 1393.322 1394.518 1395.714 1396.911 1398.107 1399.254 1400.582 1402.345 1404.109 1405.868 -9999 -9999 -9999
-9999 -9999 -9999 -9999 -9999 -9999 -9999 -9999 -9999 -9999 -9999 -9999 -9999 -9999 -9999 -9999 -9999 -9999 -9999 -9999 -9999 -9999 -9999 -9999 -9999 -9999 -9999 -9999 -9999 -9999 -9999 -9999 -9999 -9999 -9999 -9999 -9999 -9999 -9999 -9999 -9999 -9999 -9999 -9999 -9999 -9999 -9999 -9999 -9999 -9999 -9999 -9999 -9999 -9999 -9999 -9999 -9999 -9999 -9999 -9999 -9999 -9999 -9999 -9999 -9999 -9999 -9999 -9999 -9999 -9999 -9999 -9999 -9999 -9999 -9999 -9999 -9999 -9999 -9999 -9999 -9999 -9999 1185.593 1187.645 1188.621 1190.077 1191.494 1192.813 1194.414 1196.359 1198.606 1200.853 1203.1 1205.347 1207.594 1210.496 1212.318 1214.219 1215.996 1217.773 1219.631 1222.216 1224.415 1224.539 1227.181 1229.814 1231.24 1232.536 1233.83 1235.125 1236.42 1237.714 1239.016 1240.37 1241.816 1243.261 1244.706 1246.151 1247.596 1248.908 1250.238 1251.585 1252.932 1254.279 1255.626 1256.973 1258.32 1259.667 1261.33 1263.14 1264.951 1266.618 1268.226 1269.833 1271.14 1272.425 1273.71 1274.995 1276.356 1277.725 1279.094 1280.528 1282.089 1283.647 1284.703 1285.759 1286.953 1288.361 1289.771 1291.871 1294.445 1297.019 1299.269 1300.426 1302.066 1303.725 1305.384 1307.019 1308.383 1309.623 1310.803 1312.088 1313.582 1315.077 1316.134 1317.097 1318.034 1319.255 1320.504 1321.879 1323.743 1325.313 1327.13 1329.232 1331.624 1333.734 1335.792 1337.816 1339.557 1341.802 1344.066 1345.815 1347.563 1349.311 1350.99 1352.624 1354.258 1355.982 1357.716 1359.451 1361.078 1362.655 1364.232 1365.809 1367.252 1368.67 1370.294 1371.945 1373.597 1375.244 1377.322 1379.667 1381.232 1381.926 1383.363 1385.141 1386.769 1388.466 1390.256 1391.649 1392.988 1394.162 1395.337 1396.512 1397.686 1398.861 1400.043 1401.764 1403.57 1405.333 1407.097 1408.855 1410.543 -9999
-9999 -9999 -9999 -9999 -9999 -9999 -9999 -9999 -9999 -9999 -9999 -9999 -9999 -9999 -9999 -9999 -9999 -9999 -9999 -9999 -9999 -9999 -9999 -9999 -9999 -9999 -9999 -9999 -9999 -9999 -9999 -9999 -9999 -9999 -9999 -9999 -9999 -9999 -9999 -9999 -9999 -9999 -9999 -9999 -9999 -9999 -9999 -9999 -9999 -9999 -9999 -9999 -9999 -9999 -9999 -9999 -9999 -9999 -9999 -9999 -9999 -9999 -9999 -9999 -9999 -9999 -9999 -9999 -9999 -9999 -9999 -9999 -9999 -9999 -9999 -9999 -9999 -9999 -9999 -9999 -9999 -9999 -9999 -9999 1189.44 1190.726 1192.143 1193.56 1194.841 1196.334 1198.393 1200.64 1202.887 1205.134 1208.656 1211.16 1212.908 1214.535 1216.332 1218.121 1220.33 1222.628 1223.966 1224.64 1227.227 1229.814 1231.297 1232.696 1234.084 1235.38 1236.676 1237.972 1239.267 1240.628 1242.072 1243.517 1244.961 1246.405 1247.85 1249.359 1250.913 1252.272 1253.629 1254.986 1256.344 1257.701 1259.058 1260.624 1262.64 1264.556 1266.406 1268.184 1269.791 1271.112 1272.382 1273.636 1274.89 1276.167 1277.451 1278.818 1280.212 1281.77 1283.327 1284.888 1286.214 1287.271 1288.327 1289.418 1291.25 1293.378 1295.268 1297.393 1299.719 1301.206 1302.864 1304.523 1306.182 1307.803 1309.133 1310.335 1311.592 1313.086 1314.581 1316.162 1317.433 1318.577 1319.831 1320.962 1322.35 1323.509 1324.589 1325.883 1327.23 1329.184 1331.581 1333.799 1335.755 1337.538 1339.186 1341.364 1343.717 1346.07 1348.36 1350.102 1351.736 1353.369 1355.003 1356.637 1358.332 1360.06 1361.637 1363.214 1364.791 1366.368 1367.928 1369.509 1371.155 1372.806 1374.458 1376.21 1378.519 1379.942 1380.637 1382.317 1384.076 1385.832 1387.633 1389.313 1390.884 1392.277 1393.67 1395.006 1396.18 1397.355 1398.529 1399.704 1401.062 1402.481 1404.316 1406.189 1408.063 1409.936 1411.397 1412.805
-9999 -9999 -9999 -9999 -9999 -9999 -9999 -9999 -9999 -9999 -9999 -9999 -9999 -9999 -9999 -9999 -9999 -9999 -9999 -9999 -9999 -9999 -9999 -9999 -9999 -9999 -9999 -9999 -9999 -9999 -9999 -9999 -9999 -9999 -9999 -9999 -9999 -9999 -9999 -9999 -9999 -9999 -9999 -9999 -9999 -9999 -9999 -9999 -9999 -9999 -9999 -9999 -9999 -9999 -9999 -9999 -9999 -9999 -9999 -9999 -9999 -9999 -9999 -9999 -9999 -9999 -9999 -9999 -9999 -9999 -9999 -9999 -9999 -9999 -9999 -9999 -9999 -9999 -9999 -9999 -9999 -9999 -9999 -9999 -9999 -9999 1192.792 1194.209 1195.609 1196.871 1198.255 1200.427 1202.736 1206.343 1209.951 1211.733 1213.368 1214.994 1216.619 1218.494 1220.825 1223.154 1223.733 1224.918 1227.228 1229.814 1231.297 1232.696 1234.094 1235.492 1236.89 1238.224 1239.52 1240.909 1242.354 1243.816 1245.331 1246.846 1248.36 1249.875 1251.595 1253.024 1254.386 1255.745 1257.102 1258.459 1259.816 1261.765 1263.806 1265.773 1267.689 1269.605 1271.078 1272.356 1273.633 1274.89 1276.143 1277.397 1278.651 1279.91 1281.455 1283.012 1284.569 1286.126 1287.686 1288.782 1289.838 1291.103 1292.994 1295.028 1297.1 1299.007 1300.382 1302.003 1303.662 1305.321 1306.98 1308.588 1309.867 1311.095 1312.59 1314.132 1315.73 1317.268 1318.451 1319.702 1321.304 1322.669 1323.881 1325.145 1326.316 1327.336 1328.438 1329.801 1331.607 1333.791 1335.518 1337.166 1338.814 1340.927 1343.28 1345.632 1348.098 1350.131 1352.456 1354.094 1355.733 1357.372 1359.011 1360.635 1362.244 1363.847 1365.451 1367.055 1368.674 1370.325 1371.971 1373.61 1375.259 1377.139 1378.25 1379.144 1381.163 1383.105 1384.971 1386.71 1388.448 1390.142 1391.511 1392.905 1394.298 1395.691 1397.024 1398.198 1399.373 1400.661 1402.08 1403.5 1404.994 1406.868 1408.741 1410.601 1412.056 -9999
-9999 -9999 -9999 -9999 -9999 -9999 -9999 -9999 -9999 -9999 -9999 -9999 -9999 -9999 -9999 -9999 -9999 -9999 -9999 -9999 -9999 -9999 -9999 -9999 -9999 -9999 -9999 -9999 -9999 -9999 -9999 -9999 -9999 -9999 -9999 -9999 -9999 -9999 -9999 -9999 -9999 -9999 -9999 -9999 -9999 -9999 -9999 -9999 -9999 -9999 -9999 -9999 -9999 -9999 -9999 -9999 -9999 -9999 -9999 -9999 -9999 -9999 -9999 -9999 -9999 -9999 -9999 -9999 -9999 -9999 -9999 -9999 -9999 -9999 -9999 -9999 -9999 -9999 -9999 -9999 -9999 -9999 -9999 -9999 -9999 -9999 -9999 -9999 1196.276 1197.64 1198.901 1200.432 1204.039 1207.647 1210.565 1212.193 1213.827 1215.433 1217.024 1218.693 1221.124 1223.389 1223.479 1225.299 1227.574 1229.854 1231.329 1232.739 1234.149 1235.559 1236.969 1238.379 1239.789 1241.303 1242.818 1244.332 1245.847 1247.361 1248.876 1250.448 1252.187 1253.737 1255.135 1256.497 1257.858 1259.218 1260.864 1262.906 1264.947 1266.988 1268.906 1270.653 1272.174 1273.6 1274.878 1276.143 1277.397 1278.651 1279.905 1281.173 1282.595 1284.176 1285.756 1287.337 1288.918 1290.362 1291.665 1292.969 1294.886 1296.92 1298.954 1300.575 1301.65 1302.875 1304.469 1306.119 1307.778 1309.372 1310.599 1312.102 1313.7 1315.298 1316.897 1318.288 1319.439 1321.042 1322.645 1324.247 1325.403 1326.449 1327.821 1328.966 1330.042 1331.166 1332.393 1333.765 1335.136 1336.945 1338.442 1340.49 1342.93 1345.376 1347.278 1349.532 1351.881 1354.564 1356.425 1358.064 1359.703 1361.059 1362.623 1364.267 1365.91 1367.638 1369.495 1371.147 1372.794 1374.433 1376.072 1376.686 1377.619 1379.6 1381.743 1383.841 1385.81 1387.605 1389.343 1390.823 1392.146 1393.525 1394.922 1396.318 1397.713 1399.041 1400.261 1401.68 1403.099 1404.519 1405.938 1407.546 1409.419 1411.264 1412.715 -9999
-9999 -9999 -9999 -9999 -9999 -9999 -9999 -9999 -9999 -9999 -9999 -9999 -9999 -9999 -9999 -9999 -9999 -9999 -9999 -9999 -9999 -9999 -9999 -9999 -9999 -9999 -9999 -9999 -9999 -9999 -9999 -9999 -9999 -9999 -9999 -9999 -9999 -9999 -9999 -9999 -9999 -9999 -9999 -9999 -9999 -9999 -9999 -9999 -9999 -9999 -9999 -9999 -9999 -9999 -9999 -9999 -9999 -9999 -9999 -9999 -9999 -9999 -9999 -9999 -9999 -9999 -9999 -9999 -9999 -9999 -9999 -9999 -9999 -9999 -9999 -9999 -9999 -9999 -9999 -9999 -9999 -9999 -9999 -9999 -9999 -9999 -9999 -9999 -9999 -9999 1200.703 1202.802 1205.522 1209.124 1211.229 1212.772 1214.287 1215.741 1217.333 1218.808 1221.273 1222.997 1223.219 1225.611 1228.003 1230.239 1231.684 1233.129 1234.569 1235.979 1237.389 1238.799 1240.236 1241.819 1243.334 1244.848 1246.363 1247.877 1249.392 1251.041 1252.779 1254.448 1255.85 1257.245 1258.607 1259.969 1261.834 1263.948 1266.061 1268.129 1270.097 1271.619 1273.14 1274.661 1276.122 1277.397 1278.651 1279.905 1281.173 1282.443 1283.713 1285.285 1286.866 1288.447 1290.035 1292.046 1293.531 1294.835 1296.778 1298.812 1300.492 1301.676 1302.855 1303.896 1305.386 1306.98 1308.576 1310.111 1311.67 1313.268 1314.866 1316.465 1318.063 1319.291 1320.78 1322.382 1323.985 1325.588 1327.19 1328.397 1329.513 1330.624 1331.771 1332.884 1333.876 1334.836 1335.793 1337.312 1338.608 1340.546 1342.653 1344.555 1346.471 1348.872 1350.949 1353.631 1356.314 1358.756 1360.312 1361.606 1362.969 1364.612 1366.256 1368.308 1370.206 1371.961 1373.618 1375.195 1375.714 1376.421 1377.944 1379.879 1382.113 1384.347 1386.519 1388.5 1390.182 1391.504 1392.827 1394.15 1395.539 1396.936 1398.332 1399.729 1401.265 1402.692 1404.118 1405.538 1406.957 1408.376 1410.095 1411.928 -9999 -9999
-9999 -9999 -9999 -9999 -9999 -9999 -9999 -9999 -9999 -9999 -9999 -9999 -9999 -9999 -9999 -9999 -9999 -9999 -9999 -9999 -9999 -9999 -9999 -9999 -9999 -9999 -9999 -9999 -9999 -9999 -9999 -9999 -9999 -9999 -9999 -9999 -9999 -9999 -9999 -9999 -9999 -9999 -9999 -9999 -9999 -9999 -9999 -9999 -9999 -9999 -9999 -9999 -9999 -9999 -9999 -9999 -9999 -9999 -9999 -9999 -9999 -9999 -9999 -9999 -9999 -9999 -9999 -9999 -9999 -9999 -9999 -9999 -9999 -9999 -9999 -9999 -9999 -9999 -9999 -9999 -9999 -9999 -9999 -9999 -9999 -9999 -9999 -9999 -9999 -9999 -9999 -9999 1207.375 1210.233 1211.707 1213.222 1214.733 1216.169 1217.641 1219.105 1221.102 1222.753 1223.546 1226.136 1228.544 1230.566 1232.011 1233.456 1234.901 1236.347 1237.792 1239.22 1240.711 1242.302 1243.849 1245.364 1246.879 1248.393 1249.908 1251.633 1253.372 1255.11 1256.561 1257.963 1259.356 1260.961 1262.782 1264.688 1266.802 1268.915 1270.854 1272.574 1274.101 1275.627 1277.148 1278.644 1279.905 1281.173 1282.443 1283.713 1284.982 1286.395 1287.975 1289.556 1291.446 1293.457 1295.397 1296.7 1298.67 1300.41 1301.593 1302.777 1303.957 1305.135 1306.303 1307.897 1309.49 1311.201 1312.836 1314.435 1316.033 1317.631 1319.144 1320.518 1322.12 1323.723 1325.326 1326.928 1328.432 1329.959 1331.052 1332.187 1333.4 1334.592 1335.687 1336.75 1337.839 1339.034 1339.887 1340.735 1342.289 1343.91 1345.823 1348.213 1350.252 1352.699 1355.381 1357.971 1360.573 1362.152 1363.447 1364.958 1366.871 1368.978 1370.923 1372.686 1374.215 1374.748 1375.587 1376.912 1378.269 1380.157 1382.391 1384.625 1386.86 1389.094 1390.863 1392.185 1393.508 1394.831 1396.157 1397.554 1398.95 1400.416 1402.092 1403.654 1405.081 1406.508 1407.936 1409.363 1410.849 1412.591 -9999 -9999
-9999 -9999 -9999 -9999 -9999 -9999 -9999 -9999 -9999 -9999 -9999 -9999 -9999 -9999 -9999 -9999 -9999 -9999 -9999 -9999 -9999 -9999 -9999 -9999 -9999 -9999 -9999 -9999 -9999 -9999 -9999 -9999 -9999 -9999 -9999 -9999 -9999 -9999 -9999 -9999 -9999 -9999 -9999 -9999 -9999 -9999 -9999 -9999 -9999 -9999 -9999 -9999 -9999 -9999 -9999 -9999 -9999 -9999 -9999 -9999 -9999 -9999 -9999 -9999 -9999 -9999 -9999 -9999 -9999 -9999 -9999 -9999 -9999 -9999 -9999 -9999 -9999 -9999 -9999 -9999 -9999 -9999 -9999 -9999 -9999 -9999 -9999 -9999 -9999 -9999 -9999 -9999 -9999 -9999 1212.3 1213.752 1215.194 1216.63 1218.065 1219.933 1222.355 1222.763 1224.198 1226.624 1229.055 1230.893 1232.336 1233.776 1235.216 1236.656 1238.097 1239.537 1241.174 1242.776 1244.365 1245.88 1247.395 1248.909 1250.486 1252.225 1253.964 1255.703 1257.271 1258.673 1260.091 1261.875 1263.784 1265.605 1267.542 1269.656 1271.47 1273.226 1274.982 1276.571 1278.097 1279.624 1281.116 1282.437 1283.713 1284.982 1286.252 1287.522 1289.085 1290.847 1292.858 1294.869 1296.88 1298.566 1300.327 1301.511 1302.694 1303.878 1305.059 1306.237 1307.411 1308.814 1310.451 1312.217 1313.983 1315.631 1317.199 1318.798 1320.255 1321.858 1323.451 1324.914 1326.376 1327.838 1329.302 1330.975 1332.342 1333.742 1334.966 1336.245 1337.432 1338.514 1339.738 1340.808 1341.62 1342.429 1343.316 1344.543 1346.133 1347.851 1349.73 1351.711 1354.148 1357.478 1360.227 1361.877 1363.527 1365.436 1367.549 1369.662 1371.671 1373.12 1373.718 1374.786 1376.06 1377.393 1378.724 1380.435 1382.669 1385.026 1387.475 1389.923 1391.486 1392.861 1394.187 1395.512 1396.834 1398.171 1399.568 1401.157 1402.833 1404.51 1406.042 1407.469 1408.897 1410.348 1411.881 -9999 -9999 -9999
-9999 -9999 -9999 -9999 -9999 -9999 -9999 -9999 -9999 -9999 -9999 -9999 -9999 -9999 -9999 -9999 -9999 -9999 -9999 -9999 -9999 -9999 -9999 -9999 -9999 -9999 -9999 -9999 -9999 -9999 -9999 -9999 -9999 -9999 -9999 -9999 -9999 -9999 -9999 -9999 -9999 -9999 -9999 -9999 -9999 -9999 -9999 -9999 -9999 -9999 -9999 -9999 -9999 -9999 -9999 -9999 -9999 -9999 -9999 -9999 -9999 -9999 -9999 -9999 -9999 -9999 -9999 -9999 -9999 -9999 -9999 -9999 -9999 -9999 -9999 -9999 -9999 -9999 -9999 -9999 -9999 -9999 -9999 -9999 -9999 -9999 -9999 -9999 -9999 -9999 -9999 -9999 -9999 -9999 -9999 1214.035 1215.805 1217.225 1218.622 1220.585 1222.857 1222.837 1224.825 1227.115 1229.404 1231.087 1232.556 1234.025 1235.494 1236.937 1238.377 1239.817 1241.511 1243.241 1244.842 1246.396 1247.91 1249.425 1251.079 1252.817 1254.556 1256.295 1257.982 1259.384 1260.946 1262.631 1264.477 1266.446 1268.415 1270.329 1272.086 1273.842 1275.598 1277.354 1279.042 1280.551 1282.032 1283.513 1284.88 1286.186 1287.493 1288.791 1290.248 1292.258 1294.269 1296.301 1298.347 1300.124 1301.428 1302.612 1303.795 1304.979 1306.161 1307.339 1308.516 1309.731 1311.467 1313.233 1314.999 1316.764 1318.436 1319.986 1321.395 1322.858 1324.32 1325.783 1327.245 1328.707 1330.277 1331.71 1333.283 1334.882 1336.36 1337.854 1339.199 1340.287 1341.349 1342.329 1343.306 1344.224 1345.127 1346.078 1347.224 1348.674 1350.093 1351.727 1353.655 1356.907 1359.651 1361.531 1363.268 1365.974 1368.229 1370.344 1371.795 1372.518 1373.859 1375.44 1376.795 1378.066 1379.337 1381.048 1383.416 1385.864 1388.313 1390.477 1392.01 1393.533 1394.859 1396.185 1397.511 1398.837 1400.223 1401.899 1403.575 1405.251 1406.927 1408.43 1409.858 1411.38 1412.538 -9999 -9999 -9999
-9999 -9999 -9999 -9999 -9999 -9999 -9999 -9999 -9999 -9999 -9999 -9999 -9999 -9999 -9999 -9999 -9999 -9999 -9999 -9999 -9999 -9999 -9999 -9999 -9999 -9999 -9999 -9999 -9999 -9999 -9999 -9999 -9999 -9999 -9999 -9999 -9999 -9999 -9999 -9999 -9999 -9999 -9999 -9999 -9999 -9999 -9999 -9999 -9999 -9999 -9999 -9999 -9999 -9999 -9999 -9999 -9999 -9999 -9999 -9999 -9999 -9999 -9999 -9999 -9999 -9999 -9999 -9999 -9999 -9999 -9999 -9999 -9999 -9999 -9999 -9999 -9999 -9999 -9999 -9999 -9999 -9999 -9999 -9999 -9999 -9999 -9999 -9999 -9999 -9999 -9999 -9999 -9999 -9999 -9999 -9999 -9999 1216.861 1219.163 1221.176 1222.882 1223.159 1225.195 1227.352 1229.641 1231.239 1232.708 1234.177 1235.646 1237.115 1238.609 1240.128 1241.848 1243.578 1245.309 1246.907 1248.426 1249.941 1251.671 1253.41 1255.148 1256.887 1258.626 1260.115 1261.8 1263.486 1265.172 1267.079 1269.048 1270.845 1272.542 1274.306 1276.07 1277.834 1279.599 1281.457 1282.947 1284.43 1285.911 1287.322 1288.629 1289.935 1291.944 1293.989 1295.802 1297.463 1299.124 1300.785 1302.319 1303.713 1304.896 1306.08 1307.262 1308.44 1309.618 1310.917 1312.731 1314.462 1316.192 1317.923 1319.653 1321.081 1322.438 1323.792 1325.189 1326.652 1328.114 1329.576 1331.078 1332.695 1334.333 1335.959 1337.429 1338.975 1340.654 1341.88 1342.897 1343.877 1344.856 1345.921 1347.011 1348.07 1349.143 1350.089 1351.649 1352.797 1354.409 1356.442 1359.036 1361.185 1363.761 1366.48 1368.828 1370.248 1371.082 1372.668 1374.391 1376.057 1377.532 1378.803 1380.128 1382.321 1384.513 1386.706 1389.15 1391.001 1392.535 1394.068 1395.531 1396.857 1398.183 1399.509 1400.902 1402.413 1404.154 1405.896 1407.637 1409.344 1410.704 1411.849 -9999 -9999 -9999 -9999
-9999 -9999 -9999 -9999 -9999 -9999 -9999 -9999 -9999 -9999 -9999 -9999 -9999 -9999 -9999 -9999 -9999 -9999 -9999 -9999 -9999 -9999 -9999 -9999 -9999 -9999 -9999 -9999 -9999 -9999 -9999 -9999 -9999 -9999 -9999 -9999 -9999 -9999 -9999 -9999 -9999 -9999 -9999 -9999 -9999 -9999 -9999 -9999 -9999 -9999 -9999 -9999 -9999 -9999 -9999 -9999 -9999 -9999 -9999 -9999 -9999 -9999 -9999 -9999 -9999 -9999 -9999 -9999 -9999 -9999 -9999 -9999 -9999 -9999 -9999 -9999 -9999 -9999 -9999 -9999 -9999 -9999 -9999 -9999 -9999 -9999 -9999 -9999 -9999 -9999 -9999 -9999 -9999 -9999 -9999 -9999 -9999 -9999 -9999 1220.831 1222.746 1223.648 1225.689 1227.787 1229.878 1231.415 1232.918 1234.422 1235.925 1237.428 1238.932 1240.497 1242.212 1243.927 1245.646 1247.377 1248.942 1250.524 1252.263 1254.002 1255.741 1257.479 1259.225 1260.968 1262.655 1264.341 1266.026 1267.712 1269.681 1271.37 1273.006 1274.694 1276.458 1278.223 1279.987 1282.035 1283.832 1285.323 1286.813 1288.303 1289.765 1291.481 1293.141 1294.802 1296.463 1298.124 1299.785 1301.445 1303.044 1304.494 1305.942 1307.181 1308.364 1309.542 1310.83 1312.187 1313.813 1315.798 1317.586 1319.316 1320.809 1322.147 1323.504 1324.868 1326.231 1327.594 1328.983 1330.47 1332.108 1333.746 1335.384 1337.021 1338.499 1340.108 1341.922 1343.427 1344.445 1345.425 1346.439 1347.528 1348.636 1349.72 1350.852 1352.173 1353.501 1354.699 1356.043 1357.686 1359.242 1361.528 1364.252 1366.973 1368.458 1369.457 1371.222 1373.04 1374.859 1376.611 1378.255 1379.541 1381.401 1383.594 1385.786 1387.977 1390.037 1391.526 1393.059 1394.593 1396.126 1397.529 1398.855 1400.195 1401.628 1403.061 1404.536 1406.278 1408.019 1409.76 1411.16 1412.304 -9999 -9999 -9999 -9999
-9999 -9999 -9999 -9999 -9999 -9999 -9999 -9999 -9999 -9999 -9999 -9999 -9999 -9999 -9999 -9999 -9999 -9999 -9999 -9999 -9999 -9999 -9999 -9999 -9999 -9999 -9999 -9999 -9999 -9999 -9999 -9999 -9999 -9999 -9999 -9999 -9999 -9999 -9999 -9999 -9999 -9999 -9999 -9999 -9999 -9999 -9999 -9999 -9999 -9999 -9999 -9999 -9999 -9999 -9999 -9999 -9999 -9999 -9999 -9999 -9999 -9999 -9999 -9999 -9999 -9999 -9999 -9999 -9999 -9999 -9999 -9999 -9999 -9999 -9999 -9999 -9999 -9999 -9999 -9999 -9999 -9999 -9999 -9999 -9999 -9999 -9999 -9999 -9999 -9999 -9999 -9999 -9999 -9999 -9999 -9999 -9999 -9999 -9999 -9999 -9999 1224.341 1226.114 1228.051 1230.107 1231.633 1233.193 1234.745 1236.248 1237.751 1239.255 1240.865 1242.58 1244.295 1246.01 1247.726 1249.444 1251.117 1252.883 1254.667 1256.45 1258.234 1260.018 1261.757 1263.48 1265.174 1266.868 1268.562 1270.26 1271.896 1273.531 1275.167 1276.846 1278.611 1280.436 1282.486 1284.536 1286.208 1287.698 1289.188 1290.605 1292.153 1293.802 1295.463 1297.124 1298.785 1300.445 1302.106 1303.767 1305.219 1306.668 1308.116 1309.466 1310.742 1312.099 1313.457 1314.886 1316.871 1318.856 1320.549 1321.887 1323.225 1324.564 1325.927 1327.291 1328.654 1330.02 1331.554 1333.165 1334.796 1336.434 1338.072 1339.613 1341.376 1343.19 1344.974 1345.993 1346.973 1348.037 1349.145 1350.253 1351.344 1352.492 1353.955 1355.413 1356.835 1357.918 1359.202 1360.243 1362.094 1364.73 1366.152 1368.855 1370.389 1371.935 1373.639 1375.343 1377.047 1378.832 1380.482 1382.642 1384.717 1386.792 1388.866 1390.674 1392.161 1393.647 1395.133 1396.651 1398.184 1399.527 1400.921 1402.354 1403.787 1405.22 1406.66 1408.401 1410.128 1411.615 -9999 -9999 -9999 -9999 -9999
-9999 -9999 -9999 -9999 -9999 -9999 -9999 -9999 -9999 -9999 -9999 -9999 -9999 -9999 -9999 -9999 -9999 -9999 -9999 -9999 -9999 -9999 -9999 -9999 -9999 -9999 -9999 -9999 -9999 -9999 -9999 -9999 -9999 -9999 -9999 -9999 -9999 -9999 -9999 -9999 -9999 -9999 -9999 -9999 -9999 -9999 -9999 -9999 -9999 -9999 -9999 -9999 -9999 -9999 -9999 -9999 -9999 -9999 -9999 -9999 -9999 -9999 -9999 -9999 -9999 -9999 -9999 -9999 -9999 -9999 -9999 -9999 -9999 -9999 -9999 -9999 -9999 -9999 -9999 -9999 -9999 -9999 -9999 -9999 -9999 -9999 -9999 -9999 -9999 -9999 -9999 -9999 -9999 -9999 -9999 -9999 -9999 -9999 -9999 -9999 -9999 -9999 -9999 1227.939 1230.297 1231.823 1233.349 1234.907 1236.468 1238.029 1239.578 1241.234 1242.952 1244.671 1246.39 1248.109 1249.831 1251.644 1253.676 1255.459 1257.243 1259.027 1260.791 1262.53 1264.269 1265.992 1267.686 1269.38 1270.981 1272.532 1274.116 1275.7 1277.328 1278.999 1280.887 1282.937 1284.987 1287.037 1288.583 1290.065 1291.394 1292.864 1294.492 1296.124 1297.784 1299.445 1301.106 1302.767 1304.427 1305.943 1307.393 1308.842 1310.326 1311.952 1313.369 1314.727 1316.084 1317.945 1319.93 1321.453 1322.921 1324.302 1325.64 1326.987 1328.351 1329.714 1331.206 1332.731 1334.292 1335.904 1337.515 1339.127 1340.831 1342.645 1344.458 1346.272 1347.541 1348.551 1349.655 1350.763 1351.871 1352.97 1354.146 1355.76 1357.278 1358.626 1359.706 1360.735 1362.002 1362.852 1363.861 1365.491 1368.578 1371.249 1372.81 1374.4 1376.104 1377.808 1379.511 1381.47 1383.531 1385.606 1387.681 1389.756 1391.311 1392.797 1394.284 1395.77 1397.256 1398.742 1400.214 1401.647 1403.08 1404.513 1405.946 1407.379 1408.812 1410.473 1412.046 -9999 -9999 -9999 -9999 -9999
-9999 -9999 -9999 -9999 -9999 -9999 -9999 -9999 -9999 -9999 -9999 -9999 -9999 -9999 -9999 -9999 -9999 -9999 -9999 -9999 -9999 -9999 -9999 -9999 -9999 -9999 -9999 -9999 -9999 -9999 -9999 -9999 -9999 -9999 -9999 -9999 -9999 -9999 -9999 -9999 -9999 -9999 -9999 -9999 -9999 -9999 -9999 -9999 -9999 -9999 -9999 -9999 -9999 -9999 -9999 -9999 -9999 -9999 -9999 -9999 -9999 -9999 -9999 -9999 -9999 -9999 -9999 -9999 -9999 -9999 -9999 -9999 -9999 -9999 -9999 -9999 -9999 -9999 -9999 -9999 -9999 -9999 -9999 -9999 -9999 -9999 -9999 -9999 -9999 -9999 -9999 -9999 -9999 -9999 -9999 -9999 -9999 -9999 -9999 -9999 -9999 -9999 -9999 -9999 -9999 1232.062 1233.539 1235.064 1236.622 1238.183 1239.747 1241.628 1243.348 1245.067 1246.786 1248.505 1250.242 1251.993 1253.898 1255.974 1258.036 1259.82 1261.564 1263.303 1265.042 1266.781 1268.504 1270.181 1271.729 1273.277 1274.825 1276.405 1277.99 1279.574 1281.435 1283.43 1285.438 1287.488 1289.468 1290.854 1292.183 1293.574 1295.203 1296.831 1298.46 1300.106 1301.767 1303.427 1305.088 1306.667 1308.118 1309.567 1311.14 1312.766 1314.392 1315.996 1317.354 1319.018 1320.761 1322.267 1323.773 1325.236 1326.678 1328.055 1329.41 1330.866 1332.391 1333.917 1335.442 1337.03 1338.642 1340.31 1342.195 1343.962 1345.729 1347.541 1349.089 1350.164 1351.272 1352.38 1353.488 1354.596 1355.854 1357.564 1359.163 1360.395 1361.484 1362.57 1364.023 1363.871 1364.347 1366.137 1368.832 1372.028 1373.652 1375.23 1376.865 1378.568 1380.329 1382.391 1384.452 1386.513 1388.574 1390.462 1391.959 1393.475 1394.99 1396.506 1398.021 1399.537 1400.832 1402.063 1403.517 1404.971 1406.425 1407.878 1409.332 1410.849 -9999 -9999 -9999 -9999 -9999 -9999
-9999 -9999 -9999 -9999 -9999 -9999 -9999 -9999 -9999 -9999 -9999 -9999 -9999 -9999 -9999 -9999 -9999 -9999 -9999 -9999 -9999 -9999 -9999 -9999 -9999 -9999 -9999 -9999 -9999 -9999 -9999 -9999 -9999 -9999 -9999 -9999 -9999 -9999 -9999 -9999 -9999 -9999 -9999 -9999 -9999 -9999 -9999 -9999 -9999 -9999 -9999 -9999 -9999 -9999 -9999 -9999 -9999 -9999 -9999 -9999 -9999 -9999 -9999 -9999 -9999 -9999 -9999 -9999 -9999 -9999 -9999 -9999 -9999 -9999 -9999 -9999 -9999 -9999 -9999 -9999 -9999 -9999 -9999 -9999 -9999 -9999 -9999 -9999 -9999 -9999 -9999 -9999 -9999 -9999 -9999 -9999 -9999 -9999 -9999 -9999 -9999 -9999 -9999 -9999 -9999 -9999 -9999 -9999 1236.722 1238.341 1239.906 1241.82 1243.743 1245.462 1247.182 1248.903 1250.654 1252.404 1254.154 1256.151 1258.228 1260.296 1262.312 1264.076 1265.815 1267.554 1269.293 1270.932 1272.476 1274.024 1275.573 1277.121 1278.695 1280.342 1282.284 1284.252 1286.247 1288.242 1290.183 1291.644 1292.972 1294.301 1295.914 1297.542 1299.17 1300.799 1302.427 1304.088 1305.749 1307.391 1308.842 1310.312 1311.942 1313.575 1315.207 1316.832 1318.458 1320.069 1321.575 1323.082 1324.588 1326.094 1327.55 1328.993 1330.474 1332.045 1333.577 1335.103 1336.628 1338.157 1339.768 1341.687 1343.598 1345.365 1347.131 1348.898 1350.407 1351.576 1352.771 1353.967 1355.105 1356.213 1357.649 1358.962 1360.189 1361.912 1363.147 1363.79 1363.908 1364.948 1366.455 1367.826 1369.478 1372.421 1374.432 1376.056 1377.651 1379.329 1381.25 1383.311 1385.372 1387.266 1389.146 1390.994 1392.788 1394.304 1395.819 1397.335 1398.85 1400.289 1401.487 1402.685 1403.89 1405.344 1406.798 1408.251 1409.705 1411.247 -9999 -9999 -9999 -9999 -9999 -9999
-9999 -9999 -9999 -9999 -9999 -9999 -9999 -9999 -9999 -9999 -9999 -9999 -9999 -9999 -9999 -9999 -9999 -9999 -9999 -9999 -9999 -9999 -9999 -9999 -9999 -9999 -9999 -9999 -9999 -9999 -9999 -9999 -9999 -9999 -9999 -9999 -9999 -9999 -9999 -9999 -9999 -9999 -9999 -9999 -9999 -9999 -9999 -9999 -9999 -9999 -9999 -9999 -9999 -9999 -9999 -9999 -9999 -9999 -9999 -9999 -9999 -9999 -9999 -9999 -9999 -9999 -9999 -9999 -9999 -9999 -9999 -9999 -9999 -9999 -9999 -9999 -9999 -9999 -9999 -9999 -9999 -9999 -9999 -9999 -9999 -9999 -9999 -9999 -9999 -9999 -9999 -9999 -9999 -9999 -9999 -9999 -9999 -9999 -9999 -9999 -9999 -9999 -9999 -9999 -9999 -9999 -9999 -9999 -9999 -9999 1240.488 1241.976 1244.014 1245.858 1247.577 1249.314 1251.065 1252.815 1254.565 1256.329 1258.405 1260.468 1262.484 1264.5 1266.517 1268.327 1270.062 1271.67 1273.278 1274.821 1276.356 1277.891 1279.426 1281.207 1283.149 1285.091 1287.068 1289.063 1290.816 1292.353 1293.761 1295.09 1296.624 1298.253 1299.881 1301.51 1303.138 1304.766 1306.41 1308.07 1309.566 1311.083 1312.628 1314.247 1315.88 1317.513 1319.146 1320.779 1322.402 1323.903 1325.403 1326.908 1328.415 1329.865 1331.424 1332.995 1334.566 1336.137 1337.708 1339.257 1341.094 1343.064 1345 1346.767 1348.534 1350.184 1351.265 1352.345 1353.52 1354.715 1355.911 1357.115 1358.684 1359.87 1361.356 1363.07 1364.035 1363.879 1364.953 1366.734 1368.558 1369.937 1371.302 1372.819 1375.211 1376.835 1378.459 1380.109 1382.003 1383.883 1385.762 1387.642 1389.522 1391.359 1393.181 1395.003 1396.648 1398.164 1399.679 1400.945 1402.142 1403.34 1404.538 1405.736 1407.171 1408.624 1410.078 -9999 -9999 -9999 -9999 -9999 -9999 -9999
